-180.000000 117.742305 51.340791
-180.000000 117.396747 56.846201
-180.000000 116.590219 62.319845
-180.000000 115.325970 67.739683
-180.000000 113.609090 73.083891
-180.000000 111.446492 78.330950
-180.000000 108.846885 83.459731
-180.000000 105.820736 88.449584
-180.000000 102.380230 93.280415
-180.000000 98.539220 97.932772
-180.000000 94.313175 102.387923
-180.000000 89.719109 106.627927
-180.000000 84.775522 110.635713
-180.000000 79.502320 114.395141
-180.000000 73.920736 117.891074
-180.000000 68.053246 121.109435
-180.000000 61.923475 124.037265
-180.000000 55.556106 126.662774
-180.000000 48.976779 128.975392
-180.000000 42.211985 130.965804
-180.000000 35.288964 132.625997
-180.000000 28.235593 133.949286
-180.000000 21.080274 134.930343
-180.000000 13.851817 135.565216
-180.000000 6.579331 135.851350
-180.000000 -0.707903 135.787592
-180.000000 -7.980540 135.374200
-180.000000 -15.209296 134.612837
-180.000000 -22.365063 133.506569
-180.000000 -29.419029 132.059852
-180.000000 -36.342788 130.278510
-180.000000 -43.108462 128.169716
-180.000000 -49.688807 125.741962
-180.000000 -56.057327 123.005023
-180.000000 -62.188378 119.969920
-180.000000 -68.057272 116.648874
-180.000000 -73.640377 113.055259
-180.000000 -78.915213 109.203544
-180.000000 -83.860539 105.109238
-180.000000 -88.456442 100.788828
-180.000000 -92.684417 96.259711
-180.000000 -96.527437 91.540124
-180.000000 -99.970030 86.649072
-180.000000 -102.998333 81.606247
-180.000000 -105.600152 76.431957
-180.000000 -107.765011 71.147037
-180.000000 -109.484192 65.772766
-180.000000 -110.750772 60.330785
-180.000000 -111.559652 54.843007
-180.000000 -111.907575 49.331530
-180.000000 -111.793140 43.818546
-180.000000 -111.216807 38.326254
-180.000000 -110.180897 32.876769
-180.000000 -108.689582 27.492035
-180.000000 -106.748866 22.193735
-180.000000 -104.366564 17.003201
-180.000000 -101.552269 11.941336
-180.000000 -98.317312 7.028521
-180.000000 -94.674721 2.284538
-180.000000 -90.639162 -2.271510
-180.000000 -86.226885 -6.621277
-180.000000 -81.455656 -10.747249
-180.000000 -76.344689 -14.632812
-180.000000 -70.914562 -18.262320
-180.000000 -65.187141 -21.621158
-180.000000 -59.185489 -24.695802
-180.000000 -52.933772 -27.473870
-180.000000 -46.457163 -29.944177
-180.000000 -39.781741 -32.096776
-180.000000 -32.934387 -33.922998
-180.000000 -25.942671 -35.415491
-180.000000 -18.834747 -36.568244
-180.000000 -11.639237 -37.376615
-180.000000 -4.385113 -37.837351
-180.000000 2.898414 -37.948595
-180.000000 10.182016 -37.709900
-180.000000 17.436365 -37.122226
-180.000000 24.632249 -36.187941
-180.000000 31.740695 -34.910805
-180.000000 38.733077 -33.295962
-180.000000 45.581242 -31.349915
-180.000000 52.257613 -29.080498
-180.000000 58.735306 -26.496851
-180.000000 64.988240 -23.609376
-180.000000 70.991234 -20.429701
-180.000000 76.720119 -16.970629
-180.000000 82.151824 -13.246088
-180.000000 87.264479 -9.271077
-180.000000 92.037496 -5.061600
-180.000000 96.451657 -0.634608
-180.000000 100.489188 3.992073
-180.000000 104.133830 8.799814
-180.000000 107.370907 13.769254
-180.000000 110.187386 18.880385
-180.000000 112.571925 24.112624
-180.000000 114.514923 29.444905
-180.000000 116.008556 34.855754
-180.000000 117.046809 40.323386
-180.000000 117.625502 45.825784
-180.000000 117.742305 51.340791
-165.000000 110.612274 51.640682
-165.000000 110.108882 56.979472
-165.000000 109.178816 62.273604
-165.000000 107.825820 67.501762
-165.000000 106.055342 72.642894
-165.000000 103.874512 77.676297
-165.000000 101.292111 82.581705
-165.000000 98.318536 87.339364
-165.000000 94.965763 91.930118
-165.000000 91.247290 96.335481
-165.000000 87.178092 100.537715
-165.000000 82.774553 104.519897
-165.000000 78.054405 108.265995
-165.000000 73.036654 111.760922
-165.000000 67.741505 114.990607
-165.000000 62.190280 117.942045
-165.000000 56.405332 120.603350
-165.000000 50.409954 122.963808
-165.000000 44.228287 125.013914
-165.000000 37.885224 126.745411
-165.000000 31.406305 128.151329
-165.000000 24.817618 129.226006
-165.000000 18.145695 129.965115
-165.000000 11.417400 130.365679
-165.000000 4.659826 130.426086
-165.000000 -2.099817 130.146093
-165.000000 -8.834309 129.526826
-165.000000 -15.516534 128.570779
-165.000000 -22.119585 127.281803
-165.000000 -28.616873 125.665087
-165.000000 -34.982237 123.727142
-165.000000 -41.190044 121.475770
-165.000000 -47.215299 118.920037
-165.000000 -53.033740 116.070235
-165.000000 -58.621937 112.937838
-165.000000 -63.957391 109.535459
-165.000000 -69.018615 105.876799
-165.000000 -73.785231 101.976589
-165.000000 -78.238046 97.850536
-165.000000 -82.359128 93.515252
-165.000000 -86.131885 88.988194
-165.000000 -89.541124 84.287591
-165.000000 -92.573117 79.432371
-165.000000 -95.215657 74.442085
-165.000000 -97.458102 69.336825
-165.000000 -99.291423 64.137150
-165.000000 -100.708238 58.863997
-165.000000 -101.702841 53.538598
-165.000000 -102.271228 48.182398
-165.000000 -102.411110 42.816963
-165.000000 -102.121924 37.463898
-165.000000 -101.404834 32.144759
-165.000000 -100.262728 26.880964
-165.000000 -98.700204 21.693708
-165.000000 -96.723555 16.603878
-165.000000 -94.340739 11.631969
-165.000000 -91.561352 6.798002
-165.000000 -88.396585 2.121441
-165.000000 -84.859181 -2.378884
-165.000000 -80.963384 -6.684850
-165.000000 -76.724882 -10.779119
-165.000000 -72.160741 -14.645205
-165.000000 -67.289339 -18.267541
-165.000000 -62.130291 -21.631541
-165.000000 -56.704373 -24.723659
-165.000000 -51.033431 -27.531444
-165.000000 -45.140301 -30.043591
-165.000000 -39.048711 -32.249984
-165.000000 -32.783192 -34.141738
-165.000000 -26.368971 -35.711235
-165.000000 -19.831878 -36.952158
-165.000000 -13.198233 -37.859507
-165.000000 -6.494749 -38.429631
-165.000000 0.251582 -38.660232
-165.000000 7.013595 -38.550384
-165.000000 13.764061 -38.100527
-165.000000 20.475799 -37.312474
-165.000000 27.121783 -36.189397
-165.000000 33.675252 -34.735819
-165.000000 40.109817 -32.957593
-165.000000 46.399569 -30.861879
-165.000000 52.519181 -28.457116
-165.000000 58.444012 -25.752987
-165.000000 64.150204 -22.760381
-165.000000 69.614780 -19.491347
-165.000000 74.815738 -15.959050
-165.000000 79.732133 -12.177711
-165.000000 84.344170 -8.162558
-165.000000 88.633278 -3.929758
-165.000000 92.582186 0.503645
-165.000000 96.174992 5.119799
-165.000000 99.397231 9.900117
-165.000000 102.235927 14.825350
-165.000000 104.679650 19.875665
-165.000000 106.718559 25.030728
-165.000000 108.344445 30.269780
-165.000000 109.550762 35.571725
-165.000000 110.332650 40.915215
-165.000000 110.686963 46.278733
-165.000000 110.612274 51.640682
-150.000000 97.896996 52.918039
-150.000000 96.914125 57.476869
-150.000000 95.567363 61.953326
-150.000000 93.862134 66.329384
-150.000000 91.805303 70.587423
-150.000000 89.405152 74.710296
-150.000000 86.671347 78.681402
-150.000000 83.614895 82.484752
-150.000000 80.248104 86.105030
-150.000000 76.584530 89.527659
-150.000000 72.638925 92.738857
-150.000000 68.427178 95.725693
-150.000000 63.966246 98.476142
-150.000000 59.274093 100.979127
-150.000000 54.369612 103.224570
-150.000000 49.272552 105.203430
-150.000000 44.003438 106.907737
-150.000000 38.583485 108.330631
-150.000000 33.034518 109.466381
-150.000000 27.378881 110.310413
-150.000000 21.639348 110.859330
-150.000000 15.839028 111.110921
-150.000000 10.001279 111.064172
-150.000000 4.149606 110.719273
-150.000000 -1.692428 110.077612
-150.000000 -7.501299 109.141772
-150.000000 -13.253617 107.915523
-150.000000 -18.926218 106.403801
-150.000000 -24.496263 104.612694
-150.000000 -29.941321 102.549413
-150.000000 -35.239468 100.222268
-150.000000 -40.369370 97.640629
-150.000000 -45.310370 94.814890
-150.000000 -50.042574 91.756431
-150.000000 -54.546925 88.477566
-150.000000 -58.805287 84.991499
-150.000000 -62.800513 81.312267
-150.000000 -66.516515 77.454684
-150.000000 -69.938330 73.434283
-150.000000 -73.052180 69.267254
-150.000000 -75.845527 64.970376
-150.000000 -78.307122 60.560950
-150.000000 -80.427054 56.056732
-150.000000 -82.196786 51.475859
-150.000000 -83.609193 46.836776
-150.000000 -84.658587 42.158163
-150.000000 -85.340742 37.458860
-150.000000 -85.652912 32.757788
-150.000000 -85.593840 28.073877
-150.000000 -85.163764 23.425989
-150.000000 -84.364415 18.832837
-150.000000 -83.199012 14.312918
-150.000000 -81.672247 9.884431
-150.000000 -79.790270 5.565208
-150.000000 -77.560656 1.372642
-150.000000 -74.992386 -2.676387
-150.000000 -72.095799 -6.565573
-150.000000 -68.882559 -10.279256
-150.000000 -65.365606 -13.802484
-150.000000 -61.559100 -17.121068
-150.000000 -57.478370 -20.221646
-150.000000 -53.139846 -23.091734
-150.000000 -48.560998 -25.719773
-150.000000 -43.760264 -28.095183
-150.000000 -38.756975 -30.208399
-150.000000 -33.571277 -32.050910
-150.000000 -28.224051 -33.615298
-150.000000 -22.736829 -34.895264
-150.000000 -17.131705 -35.885654
-150.000000 -11.431250 -36.582480
-150.000000 -5.658417 -36.982935
-150.000000 0.163549 -37.085408
-150.000000 6.011204 -36.889485
-150.000000 11.861003 -36.395957
-150.000000 17.689389 -35.606809
-150.000000 23.472895 -34.525220
-150.000000 29.188232 -33.155544
-150.000000 34.812387 -31.503298
-150.000000 40.322712 -29.575134
-150.000000 45.697021 -27.378815
-150.000000 50.913671 -24.923187
-150.000000 55.951659 -22.218136
-150.000000 60.790697 -19.274555
-150.000000 65.411301 -16.104297
-150.000000 69.794865 -12.720127
-150.000000 73.923737 -9.135673
-150.000000 77.781293 -5.365367
-150.000000 81.351999 -1.424391
-150.000000 84.621478 2.671386
-150.000000 87.576564 6.905471
-150.000000 90.205359 11.260816
-150.000000 92.497276 15.719883
-150.000000 94.443088 20.264716
-150.000000 96.034959 24.877017
-150.000000 97.266479 29.538211
-150.000000 98.132690 34.229531
-150.000000 98.630103 38.932087
-150.000000 98.756716 43.626941
-150.000000 98.512018 48.295191
-150.000000 97.896996 52.918039
-135.000000 94.901123 72.250854
-135.000000 93.795461 76.888543
-135.000000 92.315148 81.433267
-135.000000 90.466144 85.866725
-135.000000 88.255894 90.171066
-135.000000 85.693298 94.328956
-135.000000 82.788675 98.323654
-135.000000 79.553720 102.139075
-135.000000 76.001459 105.759854
-135.000000 72.146198 109.171414
-135.000000 68.003458 112.360016
-135.000000 63.589921 115.312820
-135.000000 58.923360 118.017938
-135.000000 54.022564 120.464477
-135.000000 48.907268 122.642585
-135.000000 43.598069 124.543491
-135.000000 38.116346 126.159542
-135.000000 32.484170 127.484230
-135.000000 26.724222 128.512222
-135.000000 20.859694 129.239377
-135.000000 14.914201 129.662768
-135.000000 8.911682 129.780690
-135.000000 2.876309 129.592668
-135.000000 -3.167616 129.099459
-135.000000 -9.195758 128.303050
-135.000000 -15.183842 127.206647
-135.000000 -21.107756 125.814664
-135.000000 -26.943648 124.132708
-135.000000 -32.668018 122.167550
-135.000000 -38.257816 119.927103
-135.000000 -43.690534 117.420390
-135.000000 -48.944296 114.657503
-135.000000 -53.997948 111.649569
-135.000000 -58.831139 108.408698
-135.000000 -63.424409 104.947940
-135.000000 -67.759262 101.281232
-135.000000 -71.818243 97.423336
-135.000000 -75.585007 93.389789
-135.000000 -79.044389 89.196831
-135.000000 -82.182457 84.861346
-135.000000 -84.986576 80.400792
-135.000000 -87.445455 75.833129
-135.000000 -89.549192 71.176750
-135.000000 -91.289317 66.450404
-135.000000 -92.658823 61.673124
-135.000000 -93.652195 56.864144
-135.000000 -94.265434 52.042830
-135.000000 -94.496069 47.228596
-135.000000 -94.343173 42.440825
-135.000000 -93.807361 37.698797
-135.000000 -92.890791 33.021607
-135.000000 -91.597152 28.428087
-135.000000 -89.931655 23.936735
-135.000000 -87.901006 19.565635
-135.000000 -85.513380 15.332389
-135.000000 -82.778394 11.254041
-135.000000 -79.707058 7.347015
-135.000000 -76.311741 3.627042
-135.000000 -72.606115 0.109101
-135.000000 -68.605099 -3.192642
-135.000000 -64.324806 -6.264892
-135.000000 -59.782470 -9.095278
-135.000000 -54.996382 -11.672404
-135.000000 -49.985814 -13.985892
-135.000000 -44.770941 -16.026426
-135.000000 -39.372762 -17.785791
-135.000000 -33.813013 -19.256901
-135.000000 -28.114082 -20.433833
-135.000000 -22.298916 -21.311849
-135.000000 -16.390931 -21.887412
-135.000000 -10.413916 -22.158204
-135.000000 -4.391939 -22.123137
-135.000000 1.650753 -21.782350
-135.000000 7.689826 -21.137216
-135.000000 13.700965 -20.190333
-135.000000 19.659965 -18.945513
-135.000000 25.542830 -17.407770
-135.000000 31.325872 -15.583294
-135.000000 36.985806 -13.479433
-135.000000 42.499840 -11.104657
-135.000000 47.845771 -8.468530
-135.000000 53.002074 -5.581666
-135.000000 57.947986 -2.455689
-135.000000 62.663590 0.896813
-135.000000 67.129900 4.462341
-135.000000 71.328931 8.226538
-135.000000 75.243775 12.174247
-135.000000 78.858668 16.289571
-135.000000 82.159054 20.555941
-135.000000 85.131645 24.956176
-135.000000 87.764469 29.472558
-135.000000 90.046926 34.086902
-135.000000 91.969826 38.780628
-135.000000 93.525424 43.534834
-135.000000 94.707458 48.330379
-135.000000 95.511168 53.147951
-135.000000 95.933318 57.968152
-135.000000 95.972207 62.771573
-135.000000 95.627680 67.538872
-135.000000 94.901123 72.250854
-120.000000 87.473119 62.811006
-120.000000 86.787525 66.072415
-120.000000 85.805836 69.271925
-120.000000 84.532007 72.396653
-120.000000 82.971166 75.434017
-120.000000 81.129599 78.371786
-120.000000 79.014721 81.198130
-120.000000 76.635047 83.901670
-120.000000 74.000160 86.471519
-120.000000 71.120669 88.897330
-120.000000 68.008169 91.169333
-120.000000 64.675194 93.278381
-120.000000 61.135164 95.215982
-120.000000 57.402333 96.974332
-120.000000 53.491731 98.546353
-120.000000 49.419107 99.925714
-120.000000 45.200858 101.106861
-120.000000 40.853971 102.085037
-120.000000 36.395948 102.856305
-120.000000 31.844740 103.417557
-120.000000 27.218674 103.766536
-120.000000 22.536377 103.901834
-120.000000 17.816703 103.822908
-120.000000 13.078656 103.530075
-120.000000 8.341316 103.024515
-120.000000 3.623756 102.308262
-120.000000 -1.055025 101.384202
-120.000000 -5.676190 100.256055
-120.000000 -10.221129 98.928363
-120.000000 -14.671543 97.406474
-120.000000 -19.009510 95.696514
-120.000000 -23.217564 93.805369
-120.000000 -27.278760 91.740655
-120.000000 -31.176745 89.510685
-120.000000 -34.895823 87.124439
-120.000000 -38.421019 84.591524
-120.000000 -41.738138 81.922141
-120.000000 -44.833823 79.127038
-120.000000 -47.695610 76.217469
-120.000000 -50.311973 73.205152
-120.000000 -52.672380 70.102214
-120.000000 -54.767324 66.921151
-120.000000 -56.588370 63.674771
-120.000000 -58.128186 60.376147
-120.000000 -59.380571 57.038561
-120.000000 -60.340483 53.675452
-120.000000 -61.004056 50.300362
-120.000000 -61.368618 46.926883
-120.000000 -61.432701 43.568596
-120.000000 -61.196047 40.239026
-120.000000 -60.659609 36.951579
-120.000000 -59.825548 33.719492
-120.000000 -58.697221 30.555780
-120.000000 -57.279172 27.473182
-120.000000 -55.577111 24.484111
-120.000000 -53.597892 21.600602
-120.000000 -51.349484 18.834267
-120.000000 -48.840940 16.196245
-120.000000 -46.082363 13.697157
-120.000000 -43.084858 11.347067
-120.000000 -39.860498 9.155438
-120.000000 -36.422264 7.131094
-120.000000 -32.784001 5.282188
-120.000000 -28.960360 3.616163
-120.000000 -24.966737 2.139729
-120.000000 -20.819212 0.858830
-120.000000 -16.534487 -0.221375
-120.000000 -12.129814 -1.096538
-120.000000 -7.622930 -1.763133
-120.000000 -3.031982 -2.218478
-120.000000 1.624544 -2.460738
-120.000000 6.327898 -2.488939
-120.000000 11.059140 -2.302966
-120.000000 15.799220 -1.903568
-120.000000 20.529052 -1.292354
-120.000000 25.229589 -0.471784
-120.000000 29.881904 0.554836
-120.000000 34.467265 1.783374
-120.000000 38.967207 3.208883
-120.000000 43.363611 4.825621
-120.000000 47.638774 6.627080
-120.000000 51.775481 8.606006
-120.000000 55.757076 10.754430
-120.000000 59.567526 13.063700
-120.000000 63.191488 15.524520
-120.000000 66.614368 18.126979
-120.000000 69.822385 20.860598
-120.000000 72.802622 23.714371
-120.000000 75.543076 26.676806
-120.000000 78.032715 29.735974
-120.000000 80.261512 32.879557
-120.000000 82.220494 36.094897
-120.000000 83.901771 39.369047
-120.000000 85.298575 42.688824
-120.000000 86.405281 46.040859
-120.000000 87.217432 49.411655
-120.000000 87.731758 52.787639
-120.000000 87.946189 56.155218
-120.000000 87.859860 59.500831
-120.000000 87.473119 62.811006
-105.000000 87.260599 56.463121
-105.000000 87.560587 59.592050
-105.000000 87.600372 62.744134
-105.000000 87.379795 65.906681
-105.000000 86.899743 69.066958
-105.000000 86.162150 72.212237
-105.000000 85.169986 75.329855
-105.000000 83.927245 78.407257
-105.000000 82.438932 81.432053
-105.000000 80.711040 84.392063
-105.000000 78.750526 87.275367
-105.000000 76.565285 90.070355
-105.000000 74.164115 92.765774
-105.000000 71.556686 95.350769
-105.000000 68.753497 97.814931
-105.000000 65.765835 100.148340
-105.000000 62.605730 102.341597
-105.000000 59.285907 104.385873
-105.000000 55.819734 106.272936
-105.000000 52.221168 107.995186
-105.000000 48.504699 109.545690
-105.000000 44.685292 110.918203
-105.000000 40.778326 112.107199
-105.000000 36.799533 113.107891
-105.000000 32.764935 113.916249
-105.000000 28.690777 114.529018
-105.000000 24.593464 114.943731
-105.000000 20.489496 115.158717
-105.000000 16.395397 115.173112
-105.000000 12.327652 114.986857
-105.000000 8.302642 114.600701
-105.000000 4.336573 114.016201
-105.000000 0.445415 113.235710
-105.000000 -3.355163 112.262369
-105.000000 -7.049857 111.100100
-105.000000 -10.623792 109.753581
-105.000000 -14.062574 108.228235
-105.000000 -17.352359 106.530203
-105.000000 -20.479899 104.666324
-105.000000 -23.432600 102.644102
-105.000000 -26.198573 100.471680
-105.000000 -28.766680 98.157805
-105.000000 -31.126581 95.711796
-105.000000 -33.268773 93.143500
-105.000000 -35.184631 90.463260
-105.000000 -36.866439 87.681868
-105.000000 -38.307425 84.810523
-105.000000 -39.501788 81.860788
-105.000000 -40.444718 78.844540
-105.000000 -41.132419 75.773925
-105.000000 -41.562120 72.661306
-105.000000 -41.732092 69.519218
-105.000000 -41.641651 66.360312
-105.000000 -41.291160 63.197308
-105.000000 -40.682031 60.042942
-105.000000 -39.816716 56.909916
-105.000000 -38.698701 53.810845
-105.000000 -37.332486 50.758209
-105.000000 -35.723574 47.764299
-105.000000 -33.878442 44.841171
-105.000000 -31.804520 42.000595
-105.000000 -29.510160 39.254008
-105.000000 -27.004599 36.612472
-105.000000 -24.297927 34.086621
-105.000000 -21.401043 31.686627
-105.000000 -18.325611 29.422154
-105.000000 -15.084015 27.302320
-105.000000 -11.689308 25.335661
-105.000000 -8.155159 23.530095
-105.000000 -4.495799 21.892894
-105.000000 -0.725963 20.430650
-105.000000 3.139169 19.149250
-105.000000 7.084035 18.053854
-105.000000 11.092749 17.148873
-105.000000 15.149169 16.437952
-105.000000 19.236962 15.923952
-105.000000 23.339668 15.608944
-105.000000 27.440767 15.494196
-105.000000 31.523744 15.580170
-105.000000 35.572160 15.866519
-105.000000 39.569712 16.352091
-105.000000 43.500304 17.034931
-105.000000 47.348109 17.912288
-105.000000 51.097633 18.980631
-105.000000 54.733778 20.235657
-105.000000 58.241903 21.672313
-105.000000 61.607881 23.284814
-105.000000 64.818160 25.066666
-105.000000 67.859811 27.010696
-105.000000 70.720589 29.109074
-105.000000 73.388972 31.353352
-105.000000 75.854218 33.734493
-105.000000 78.106398 36.242909
-105.000000 80.136445 38.868499
-105.000000 81.936184 41.600690
-105.000000 83.498367 44.428482
-105.000000 84.816706 47.340488
-105.000000 85.885891 50.324982
-105.000000 86.701617 53.369947
-105.000000 87.260599 56.463121
-90.000000 81.955924 52.640897
-90.000000 82.525631 55.360441
-90.000000 82.866468 58.126545
-90.000000 82.977061 60.928072
-90.000000 82.856967 63.753741
-90.000000 82.506668 66.592173
-90.000000 81.927576 69.431939
-90.000000 81.122021 72.261606
-90.000000 80.093248 75.069777
-90.000000 78.845398 77.845147
-90.000000 77.383498 80.576540
-90.000000 75.713432 83.252956
-90.000000 73.841927 85.863620
-90.000000 71.776518 88.398019
-90.000000 69.525521 90.845948
-90.000000 67.098000 93.197549
-90.000000 64.503731 95.443355
-90.000000 61.753160 97.574321
-90.000000 58.857362 99.581868
-90.000000 55.827997 101.457911
-90.000000 52.677263 103.194897
-90.000000 49.417849 104.785830
-90.000000 46.062877 106.224306
-90.000000 42.625857 107.504531
-90.000000 39.120630 108.621351
-90.000000 35.561309 109.570268
-90.000000 31.962226 110.347463
-90.000000 28.337874 110.949804
-90.000000 24.702847 111.374868
-90.000000 21.071781 111.620941
-90.000000 17.459298 111.687035
-90.000000 13.879944 111.572881
-90.000000 10.348131 111.278940
-90.000000 6.878082 110.806396
-90.000000 3.483768 110.157151
-90.000000 0.178857 109.333819
-90.000000 -3.023342 108.339717
-90.000000 -6.109936 107.178846
-90.000000 -9.068497 105.855881
-90.000000 -11.887110 104.376150
-90.000000 -14.554427 102.745610
-90.000000 -17.059707 100.970827
-90.000000 -19.392863 99.058948
-90.000000 -21.544499 97.017671
-90.000000 -23.505952 94.855216
-90.000000 -25.269323 92.580289
-90.000000 -26.827512 90.202053
-90.000000 -28.174245 87.730081
-90.000000 -29.304099 85.174330
-90.000000 -30.212525 82.545088
-90.000000 -30.895864 79.852945
-90.000000 -31.351365 77.108739
-90.000000 -31.577194 74.323521
-90.000000 -31.572441 71.508506
-90.000000 -31.337126 68.675029
-90.000000 -30.872196 65.834500
-90.000000 -30.179524 62.998356
-90.000000 -29.261898 60.178017
-90.000000 -28.123013 57.384840
-90.000000 -26.767456 54.630072
-90.000000 -25.200684 51.924805
-90.000000 -23.429007 49.279934
-90.000000 -21.459558 46.706106
-90.000000 -19.300268 44.213688
-90.000000 -16.959831 41.812714
-90.000000 -14.447671 39.512852
-90.000000 -11.773905 37.323364
-90.000000 -8.949298 35.253065
-90.000000 -5.985224 33.310292
-90.000000 -2.893618 31.502868
-90.000000 0.313070 29.838070
-90.000000 3.621929 28.322603
-90.000000 7.019636 26.962567
-90.000000 10.492507 25.763441
-90.000000 14.026561 24.730052
-90.000000 17.607566 23.866561
-90.000000 21.221102 23.176446
-90.000000 24.852620 22.662485
-90.000000 28.487497 22.326747
-90.000000 32.111095 22.170585
-90.000000 35.708825 22.194628
-90.000000 39.266200 22.398778
-90.000000 42.768894 22.782213
-90.000000 46.202805 23.343390
-90.000000 49.554104 24.080049
-90.000000 52.809298 24.989224
-90.000000 55.955279 26.067254
-90.000000 58.979379 27.309797
-90.000000 61.869421 28.711851
-90.000000 64.613768 30.267770
-90.000000 67.201369 31.971289
-90.000000 69.621805 33.815548
-90.000000 71.865331 35.793122
-90.000000 73.922911 37.896047
-90.000000 75.786261 40.115855
-90.000000 77.447878 42.443609
-90.000000 78.901070 44.869934
-90.000000 80.139988 47.385062
-90.000000 81.159641 49.978864
-90.000000 81.955924 52.640897
-75.000000 80.494478 57.305382
-75.000000 80.983479 59.995497
-75.000000 81.247942 62.724911
-75.000000 81.286803 65.482636
-75.000000 81.099904 68.257565
-75.000000 80.687999 71.038526
-75.000000 80.052746 73.814320
-75.000000 79.196703 76.573771
-75.000000 78.123318 79.305767
-75.000000 76.836911 81.999308
-75.000000 75.342664 84.643547
-75.000000 73.646593 87.227837
-75.000000 71.755527 89.741772
-75.000000 69.677081 92.175229
-75.000000 67.419624 94.518410
-75.000000 64.992247 96.761879
-75.000000 62.404723 98.896603
-75.000000 59.667471 100.913985
-75.000000 56.791514 102.805904
-75.000000 53.788431 104.564740
-75.000000 50.670316 106.183412
-75.000000 47.449724 107.655401
-75.000000 44.139623 108.974780
-75.000000 40.753341 110.136238
-75.000000 37.304514 111.135096
-75.000000 33.807029 111.967333
-75.000000 30.274970 112.629598
-75.000000 26.722558 113.119224
-75.000000 23.164098 113.434239
-75.000000 19.613919 113.573375
-75.000000 16.086315 113.536073
-75.000000 12.595492 113.322481
-75.000000 9.155506 112.933460
-75.000000 5.780208 112.370577
-75.000000 2.483189 111.636098
-75.000000 -0.722275 110.732980
-75.000000 -3.823275 109.664860
-75.000000 -6.807327 108.436040
-75.000000 -9.662414 107.051466
-75.000000 -12.377039 105.516715
-75.000000 -14.940272 103.837966
-75.000000 -17.341792 102.021978
-75.000000 -19.571928 100.076065
-75.000000 -21.621700 98.008062
-75.000000 -23.482856 95.826295
-75.000000 -25.147900 93.539550
-75.000000 -26.610128 91.157036
-75.000000 -27.863652 88.688345
-75.000000 -28.903425 86.143417
-75.000000 -29.725260 83.532502
-75.000000 -30.325847 80.866111
-75.000000 -30.702769 78.154981
-75.000000 -30.854507 75.410030
-75.000000 -30.780450 72.642310
-75.000000 -30.480898 69.862966
-75.000000 -29.957055 67.083188
-75.000000 -29.211032 64.314172
-75.000000 -28.245832 61.567065
-75.000000 -27.065341 58.852930
-75.000000 -25.674314 56.182696
-75.000000 -24.078351 53.567115
-75.000000 -22.283879 51.016718
-75.000000 -20.298123 48.541776
-75.000000 -18.129080 46.152254
-75.000000 -15.785483 43.857774
-75.000000 -13.276769 41.667575
-75.000000 -10.613040 39.590476
-75.000000 -7.805022 37.634841
-75.000000 -4.864022 35.808544
-75.000000 -1.801882 34.118939
-75.000000 1.369069 32.572831
-75.000000 4.636060 31.176443
-75.000000 7.985938 29.935400
-75.000000 11.405214 28.854698
-75.000000 14.880120 27.938689
-75.000000 18.396662 27.191062
-75.000000 21.940682 26.614827
-75.000000 25.497909 26.212303
-75.000000 29.054019 25.985113
-75.000000 32.594693 25.934171
-75.000000 36.105674 26.059681
-75.000000 39.572824 26.361139
-75.000000 42.982183 26.837331
-75.000000 46.320022 27.486339
-75.000000 49.572900 28.305550
-75.000000 52.727721 29.291665
-75.000000 55.771780 30.440713
-75.000000 58.692819 31.748069
-75.000000 61.479078 33.208466
-75.000000 64.119337 34.816026
-75.000000 66.602963 36.564274
-75.000000 68.919958 38.446172
-75.000000 71.060990 40.454141
-75.000000 73.017439 42.580097
-75.000000 74.781427 44.815478
-75.000000 76.345850 47.151283
-75.000000 77.704410 49.578108
-75.000000 78.851636 52.086180
-75.000000 79.782909 54.665400
-75.000000 80.494478 57.305382
-60.000000 75.427159 49.351891
-60.000000 75.778851 51.329786
-60.000000 75.907604 53.352209
-60.000000 75.812898 55.411015
-60.000000 75.495116 57.497914
-60.000000 74.955536 59.604504
-60.000000 74.196331 61.722301
-60.000000 73.220559 63.842778
-60.000000 72.032148 65.957397
-60.000000 70.635885 68.057642
-60.000000 69.037390 70.135057
-60.000000 67.243101 72.181277
-60.000000 65.260243 74.188062
-60.000000 63.096799 76.147332
-60.000000 60.761482 78.051198
-60.000000 58.263695 79.891993
-60.000000 55.613495 81.662305
-60.000000 52.821554 83.355005
-60.000000 49.899114 84.963278
-60.000000 46.857943 86.480648
-60.000000 43.710287 87.901005
-60.000000 40.468819 89.218630
-60.000000 37.146593 90.428216
-60.000000 33.756985 91.524894
-60.000000 30.313645 92.504247
-60.000000 26.830437 93.362332
-60.000000 23.321387 94.095694
-60.000000 19.800626 94.701380
-60.000000 16.282329 95.176951
-60.000000 12.780663 95.520491
-60.000000 9.309729 95.730618
-60.000000 5.883504 95.806486
-60.000000 2.515782 95.747788
-60.000000 -0.779875 95.554762
-60.000000 -3.990197 95.228185
-60.000000 -7.102257 94.769371
-60.000000 -10.103524 94.180168
-60.000000 -12.981912 93.462949
-60.000000 -15.725833 92.620602
-60.000000 -18.324236 91.656518
-60.000000 -20.766658 90.574579
-60.000000 -23.043266 89.379142
-60.000000 -25.144892 88.075021
-60.000000 -27.063074 86.667467
-60.000000 -28.790087 85.162148
-60.000000 -30.318978 83.565124
-60.000000 -31.643590 81.882828
-60.000000 -32.758590 80.122031
-60.000000 -33.659487 78.289826
-60.000000 -34.342655 76.393589
-60.000000 -34.805342 74.440956
-60.000000 -35.045686 72.439789
-60.000000 -35.062718 70.398147
-60.000000 -34.856370 68.324250
-60.000000 -34.427473 66.226450
-60.000000 -33.777753 64.113193
-60.000000 -32.909828 61.992988
-60.000000 -31.827192 59.874374
-60.000000 -30.534203 57.765880
-60.000000 -29.036070 55.675998
-60.000000 -27.338824 53.613142
-60.000000 -25.449299 51.585618
-60.000000 -23.375103 49.601592
-60.000000 -21.124590 47.669051
-60.000000 -18.706820 45.795778
-60.000000 -16.131530 43.989315
-60.000000 -13.409089 42.256936
-60.000000 -10.550460 40.605618
-60.000000 -7.567153 39.042009
-60.000000 -4.471180 37.572406
-60.000000 -1.275009 36.202726
-60.000000 2.008491 34.938484
-60.000000 5.366099 33.784771
-60.000000 8.784294 32.746233
-60.000000 12.249312 31.827051
-60.000000 15.747202 31.030926
-60.000000 19.263878 30.361065
-60.000000 22.785180 29.820165
-60.000000 26.296929 29.410403
-60.000000 29.784985 29.133429
-60.000000 33.235302 28.990360
-60.000000 36.633987 28.981771
-60.000000 39.967354 29.107696
-60.000000 43.221983 29.367628
-60.000000 46.384766 29.760522
-60.000000 49.442969 30.284794
-60.000000 52.384277 30.938334
-60.000000 55.196848 31.718510
-60.000000 57.869355 32.622181
-60.000000 60.391037 33.645708
-60.000000 62.751741 34.784969
-60.000000 64.941961 36.035377
-60.000000 66.952877 37.391897
-60.000000 68.776392 38.849068
-60.000000 70.405164 40.401021
-60.000000 71.832634 42.041507
-60.000000 73.053055 43.763920
-60.000000 74.061511 45.561326
-60.000000 74.853943 47.426486
-60.000000 75.427159 49.351891
-45.000000 -31.788132 80.376639
-45.000000 -31.098543 82.635110
-45.000000 -30.203167 84.831067
-45.000000 -29.105609 86.955668
-45.000000 -27.810290 89.000358
-45.000000 -26.322424 90.956904
-45.000000 -24.648004 92.817426
-45.000000 -22.793770 94.574435
-45.000000 -20.767190 96.220854
-45.000000 -18.576424 97.750054
-45.000000 -16.230294 99.155878
-45.000000 -13.738246 100.432664
-45.000000 -11.110314 101.575273
-45.000000 -8.357082 102.579102
-45.000000 -5.489635 103.440110
-45.000000 -2.519518 104.154830
-45.000000 0.541307 104.720384
-45.000000 3.680516 105.134494
-45.000000 6.885470 105.395493
-45.000000 10.143262 105.502331
-45.000000 13.440774 105.454576
-45.000000 16.764729 105.252422
-45.000000 20.101743 104.896682
-45.000000 23.438378 104.388788
-45.000000 26.761198 103.730787
-45.000000 30.056825 102.925326
-45.000000 33.311987 101.975651
-45.000000 36.513578 100.885584
-45.000000 39.648705 99.659515
-45.000000 42.704745 98.302381
-45.000000 45.669392 96.819646
-45.000000 48.530709 95.217282
-45.000000 51.277173 93.501739
-45.000000 53.897726 91.679927
-45.000000 56.381816 89.759181
-45.000000 58.719440 87.747235
-45.000000 60.901186 85.652190
-45.000000 62.918268 83.482483
-45.000000 64.762564 81.246850
-45.000000 66.426648 78.954293
-45.000000 67.903820 76.614043
-45.000000 69.188131 74.235525
-45.000000 70.274409 71.828314
-45.000000 71.158281 69.402106
-45.000000 71.836188 66.966667
-45.000000 72.305400 64.531807
-45.000000 72.564027 62.107328
-45.000000 72.611029 59.702994
-45.000000 72.446215 57.328485
-45.000000 72.070250 54.993363
-45.000000 71.484648 52.707031
-45.000000 70.691766 50.478695
-45.000000 69.694797 48.317328
-45.000000 68.497756 46.231632
-45.000000 67.105463 44.230007
-45.000000 65.523523 42.320511
-45.000000 63.758307 40.510835
-45.000000 61.816923 38.808264
-45.000000 59.707188 37.219654
-45.000000 57.437597 35.751403
-45.000000 55.017289 34.409422
-45.000000 52.456010 33.199115
-45.000000 49.764073 32.125356
-45.000000 46.952318 31.192467
-45.000000 44.032066 30.404207
-45.000000 41.015076 29.763747
-45.000000 37.913497 29.273669
-45.000000 34.739818 28.935944
-45.000000 31.506817 28.751933
-45.000000 28.227514 28.722377
-45.000000 24.915113 28.847394
-45.000000 21.582951 29.126482
-45.000000 18.244446 29.558516
-45.000000 14.913041 30.141757
-45.000000 11.602150 30.873857
-45.000000 8.325106 31.751867
-45.000000 5.095103 32.772252
-45.000000 1.925148 33.930903
-45.000000 -1.171995 35.223155
-45.000000 -4.183855 36.643805
-45.000000 -7.098303 38.187131
-45.000000 -9.903606 39.846920
-45.000000 -12.588467 41.616488
-45.000000 -15.142074 43.488710
-45.000000 -17.554145 45.456047
-45.000000 -19.814968 47.510577
-45.000000 -21.915440 49.644027
-45.000000 -23.847101 51.847806
-45.000000 -25.602175 54.113042
-45.000000 -27.173594 56.430612
-45.000000 -28.555031 58.791184
-45.000000 -29.740922 61.185254
-45.000000 -30.726494 63.603181
-45.000000 -31.507777 66.035229
-45.000000 -32.081625 68.471605
-45.000000 -32.445728 70.902498
-45.000000 -32.598619 73.318121
-45.000000 -32.539684 75.708746
-45.000000 -32.269158 78.064748
-45.000000 -31.788132 80.376639
-30.000000 -24.811547 79.837548
-30.000000 -23.946042 81.687063
-30.000000 -22.920763 83.461185
-30.000000 -21.739839 85.152770
-30.000000 -20.408023 86.755007
-30.000000 -18.930680 88.261444
-30.000000 -17.313757 89.666016
-30.000000 -15.563766 90.963065
-30.000000 -13.687753 92.147371
-30.000000 -11.693273 93.214164
-30.000000 -9.588356 94.159148
-30.000000 -7.381477 94.978518
-30.000000 -5.081524 95.668975
-30.000000 -2.697758 96.227739
-30.000000 -0.239777 96.652560
-30.000000 2.282522 96.941726
-30.000000 4.858982 97.094075
-30.000000 7.479229 97.108992
-30.000000 10.132711 96.986417
-30.000000 12.808745 96.726844
-30.000000 15.496554 96.331319
-30.000000 18.185316 95.801432
-30.000000 20.864205 95.139320
-30.000000 23.522432 94.347646
-30.000000 26.149295 93.429600
-30.000000 28.734216 92.388878
-30.000000 31.266787 91.229670
-30.000000 33.736809 89.956645
-30.000000 36.134338 88.574928
-30.000000 38.449718 87.090082
-30.000000 40.673626 85.508088
-30.000000 42.797108 83.835315
-30.000000 44.811614 82.078498
-30.000000 46.709030 80.244712
-30.000000 48.481719 78.341341
-30.000000 50.122540 76.376049
-30.000000 51.624888 74.356749
-30.000000 52.982712 72.291573
-30.000000 54.190546 70.188836
-30.000000 55.243525 68.057006
-30.000000 56.137411 65.904666
-30.000000 56.868603 63.740483
-30.000000 57.434157 61.573171
-30.000000 57.831796 59.411458
-30.000000 58.059919 57.264048
-30.000000 58.117607 55.139587
-30.000000 58.004628 53.046631
-30.000000 57.721437 50.993607
-30.000000 57.269174 48.988781
-30.000000 56.649660 47.040227
-30.000000 55.865391 45.155791
-30.000000 54.919523 43.343059
-30.000000 53.815865 41.609333
-30.000000 52.558862 39.961592
-30.000000 51.153575 38.406472
-30.000000 49.605663 36.950235
-30.000000 47.921358 35.598744
-30.000000 46.107443 34.357441
-30.000000 44.171222 33.231325
-30.000000 42.120490 32.224930
-30.000000 39.963506 31.342309
-30.000000 37.708956 30.587015
-30.000000 35.365917 29.962089
-30.000000 32.943823 29.470049
-30.000000 30.452429 29.112876
-30.000000 27.901765 28.892007
-30.000000 25.302103 28.808332
-30.000000 22.663910 28.862188
-30.000000 19.997810 29.053358
-30.000000 17.314538 29.381072
-30.000000 14.624898 29.844011
-30.000000 11.939721 30.440311
-30.000000 9.269819 31.167570
-30.000000 6.625942 32.022861
-30.000000 4.018737 33.002738
-30.000000 1.458703 34.103257
-30.000000 -1.043854 35.319986
-30.000000 -3.478855 36.648026
-30.000000 -5.836496 38.082029
-30.000000 -8.107283 39.616222
-30.000000 -10.282074 41.244425
-30.000000 -12.352110 42.960084
-30.000000 -14.309056 44.756290
-30.000000 -16.145033 46.625809
-30.000000 -17.852647 48.561115
-30.000000 -19.425023 50.554415
-30.000000 -20.855830 52.597681
-30.000000 -22.139305 54.682687
-30.000000 -23.270281 56.801037
-30.000000 -24.244204 58.944202
-30.000000 -25.057152 61.103551
-30.000000 -25.705852 63.270389
-30.000000 -26.187691 65.435991
-30.000000 -26.500729 67.591638
-30.000000 -26.643707 69.728650
-30.000000 -26.616048 71.838420
-30.000000 -26.417863 73.912454
-30.000000 -26.049951 75.942401
-30.000000 -25.513792 77.920087
-30.000000 -24.811547 79.837548
-15.000000 -17.959041 77.251902
-15.000000 -17.107400 78.845856
-15.000000 -16.125617 80.368926
-15.000000 -15.017646 81.814978
-15.000000 -13.787948 83.178191
-15.000000 -12.441476 84.453074
-15.000000 -10.983649 85.634495
-15.000000 -9.420340 86.717697
-15.000000 -7.757843 87.698316
-15.000000 -6.002851 88.572406
-15.000000 -4.162432 89.336446
-15.000000 -2.243997 89.987360
-15.000000 -0.255269 90.522527
-15.000000 1.795741 90.939792
-15.000000 3.900778 91.237474
-15.000000 6.051362 91.414376
-15.000000 8.238837 91.469784
-15.000000 10.454392 91.403476
-15.000000 12.689107 91.215718
-15.000000 14.933983 90.907267
-15.000000 17.179981 90.479365
-15.000000 19.418058 89.933735
-15.000000 21.639201 89.272573
-15.000000 23.834466 88.498542
-15.000000 25.995014 87.614759
-15.000000 28.112146 86.624783
-15.000000 30.177335 85.532599
-15.000000 32.182267 84.342606
-15.000000 34.118869 83.059595
-15.000000 35.979341 81.688732
-15.000000 37.756194 80.235538
-15.000000 39.442271 78.705864
-15.000000 41.030785 77.105869
-15.000000 42.515337 75.441997
-15.000000 43.889952 73.720946
-15.000000 45.149093 71.949647
-15.000000 46.287690 70.135233
-15.000000 47.301159 68.285009
-15.000000 48.185419 66.406425
-15.000000 48.936910 64.507047
-15.000000 49.552604 62.594521
-15.000000 50.030024 60.676549
-15.000000 50.367246 58.760855
-15.000000 50.562913 56.855152
-15.000000 50.616237 54.967113
-15.000000 50.527003 53.104341
-15.000000 50.295571 51.274336
-15.000000 49.922872 49.484469
-15.000000 49.410407 47.741945
-15.000000 48.760240 46.053781
-15.000000 47.974989 44.426775
-15.000000 47.057815 42.867478
-15.000000 46.012412 41.382169
-15.000000 44.842988 39.976829
-15.000000 43.554254 38.657117
-15.000000 42.151399 37.428346
-15.000000 40.640070 36.295465
-15.000000 39.026354 35.263034
-15.000000 37.316749 34.335212
-15.000000 35.518138 33.515735
-15.000000 33.637764 32.807901
-15.000000 31.683199 32.214562
-15.000000 29.662313 31.738106
-15.000000 27.583242 31.380453
-15.000000 25.454360 31.143041
-15.000000 23.284238 31.026828
-15.000000 21.081614 31.032281
-15.000000 18.855359 31.159378
-15.000000 16.614435 31.407607
-15.000000 14.367866 31.775969
-15.000000 12.124700 32.262980
-15.000000 9.893967 32.866680
-15.000000 7.684650 33.584638
-15.000000 5.505647 34.413963
-15.000000 3.365730 35.351314
-15.000000 1.273516 36.392919
-15.000000 -0.762570 37.534582
-15.000000 -2.734330 38.771707
-15.000000 -4.633823 40.099312
-15.000000 -6.453402 41.512052
-15.000000 -8.185739 43.004237
-15.000000 -9.823859 44.569859
-15.000000 -11.361166 46.202615
-15.000000 -12.791470 47.895929
-15.000000 -14.109011 49.642984
-15.000000 -15.308484 51.436743
-15.000000 -16.385059 53.269986
-15.000000 -17.334402 55.135329
-15.000000 -18.152689 57.025261
-15.000000 -18.836625 58.932173
-15.000000 -19.383458 60.848387
-15.000000 -19.790984 62.766185
-15.000000 -20.057563 64.677847
-15.000000 -20.182121 66.575673
-15.000000 -20.164157 68.452023
-15.000000 -20.003743 70.299341
-15.000000 -19.701525 72.110189
-15.000000 -19.258721 73.877275
-15.000000 -18.677112 75.593483
-15.000000 -17.959041 77.251902
0.000000 -16.317488 77.302708
0.000000 -15.498035 78.704924
0.000000 -14.560286 80.037180
0.000000 -13.508016 81.294113
0.000000 -12.345462 82.470659
0.000000 -11.077305 83.562082
0.000000 -9.708651 84.563988
0.000000 -8.245013 85.472341
0.000000 -6.692283 86.283484
0.000000 -5.056713 86.994151
0.000000 -3.344890 87.601480
0.000000 -1.563706 88.103027
0.000000 0.279666 88.496770
0.000000 2.177804 88.781125
0.000000 4.123064 88.954947
0.000000 6.107614 89.017536
0.000000 8.123464 88.968640
0.000000 10.162494 88.808456
0.000000 12.216496 88.537628
0.000000 14.277198 88.157248
0.000000 16.336303 87.668846
0.000000 18.385519 87.074391
0.000000 20.416596 86.376274
0.000000 22.421353 85.577308
0.000000 24.391720 84.680709
0.000000 26.319762 83.690087
0.000000 28.197715 82.609433
0.000000 30.018018 81.443096
0.000000 31.773341 80.195774
0.000000 33.456616 78.872489
0.000000 35.061065 77.478569
0.000000 36.580227 76.019628
0.000000 38.007985 74.501539
0.000000 39.338591 72.930416
0.000000 40.566686 71.312585
0.000000 41.687325 69.654561
0.000000 42.695996 67.963019
0.000000 43.588637 66.244771
0.000000 44.361654 64.506736
0.000000 45.011934 62.755912
0.000000 45.536859 60.999349
0.000000 45.934315 59.244121
0.000000 46.202701 57.497294
0.000000 46.340938 55.765903
0.000000 46.348468 54.056920
0.000000 46.225260 52.377225
0.000000 45.971812 50.733583
0.000000 45.589144 49.132612
0.000000 45.078796 47.580758
0.000000 44.442824 46.084271
0.000000 43.683788 44.649175
0.000000 42.804744 43.281250
0.000000 41.809233 41.986003
0.000000 40.701263 40.768651
0.000000 39.485296 39.634095
0.000000 38.166226 38.586904
0.000000 36.749367 37.631293
0.000000 35.240423 36.771112
0.000000 33.645470 36.009824
0.000000 31.970931 35.350493
0.000000 30.223548 34.795776
0.000000 28.410357 34.347906
0.000000 26.538660 34.008686
0.000000 24.615993 33.779482
0.000000 22.650097 33.661217
0.000000 20.648890 33.654367
0.000000 18.620429 33.758960
0.000000 16.572882 33.974574
0.000000 14.514494 34.300342
0.000000 12.453552 34.734952
0.000000 10.398357 35.276653
0.000000 8.357183 35.923265
0.000000 6.338250 36.672184
0.000000 4.349687 37.520393
0.000000 2.399500 38.464479
0.000000 0.495544 39.500638
0.000000 -1.354515 40.624700
0.000000 -3.143229 41.832137
0.000000 -4.863394 43.118088
0.000000 -6.508084 44.477375
0.000000 -8.070676 45.904524
0.000000 -9.544878 47.393789
0.000000 -10.924755 48.939173
0.000000 -12.204750 50.534453
0.000000 -13.379708 52.173206
0.000000 -14.444899 53.848832
0.000000 -15.396034 55.554586
0.000000 -16.229283 57.283598
0.000000 -16.941290 59.028906
0.000000 -17.529188 60.783483
0.000000 -17.990611 62.540263
0.000000 -18.323700 64.292172
0.000000 -18.527114 66.032157
0.000000 -18.600034 67.753211
0.000000 -18.542166 69.448403
0.000000 -18.353743 71.110909
0.000000 -18.035525 72.734032
0.000000 -17.588792 74.311239
0.000000 -17.015343 75.836177
0.000000 -16.317488 77.302708
14.000000 -12.368260 71.471097
14.000000 -11.703671 72.792899
14.000000 -10.931022 74.059290
14.000000 -10.053425 75.265169
14.000000 -9.074414 76.405682
14.000000 -7.997930 77.476236
14.000000 -6.828308 78.472520
14.000000 -5.570258 79.390523
14.000000 -4.228846 80.226548
14.000000 -2.809473 80.977228
14.000000 -1.317854 81.639542
14.000000 0.240005 82.210821
14.000000 1.857830 82.688766
14.000000 3.529107 83.071453
14.000000 5.247107 83.357339
14.000000 7.004911 83.545275
14.000000 8.795442 83.634503
14.000000 10.611490 83.624664
14.000000 12.445742 83.515798
14.000000 14.290813 83.308343
14.000000 16.139272 83.003134
14.000000 17.983677 82.601401
14.000000 19.816601 82.104761
14.000000 21.630664 81.515213
14.000000 23.418561 80.835132
14.000000 25.173092 80.067256
14.000000 26.887193 79.214678
14.000000 28.553962 78.280829
14.000000 30.166687 77.269471
14.000000 31.718874 76.184676
14.000000 33.204274 75.030811
14.000000 34.616905 73.812524
14.000000 35.951079 72.534720
14.000000 37.201423 71.202543
14.000000 38.362903 69.821358
14.000000 39.430842 68.396728
14.000000 40.400941 66.934387
14.000000 41.269292 65.440225
14.000000 42.032399 63.920258
14.000000 42.687189 62.380606
14.000000 43.231026 60.827470
14.000000 43.661720 59.267102
14.000000 43.977536 57.705786
14.000000 44.177204 56.149809
14.000000 44.259918 54.605437
14.000000 44.225346 53.078887
14.000000 44.073628 51.576307
14.000000 43.805373 50.103747
14.000000 43.421663 48.667136
14.000000 42.924042 47.272260
14.000000 42.314513 45.924735
14.000000 41.595533 44.629987
14.000000 40.769994 43.393230
14.000000 39.841222 42.219442
14.000000 38.812957 41.113352
14.000000 37.689339 40.079412
14.000000 36.474891 39.121787
14.000000 35.174506 38.244331
14.000000 33.793418 37.450579
14.000000 32.337188 36.743727
14.000000 30.811681 36.126619
14.000000 29.223040 35.601743
14.000000 27.577660 35.171210
14.000000 25.882168 34.836755
14.000000 24.143391 34.599725
14.000000 22.368329 34.461073
14.000000 20.564132 34.421358
14.000000 18.738062 34.480741
14.000000 16.897474 34.638981
14.000000 15.049779 34.895442
14.000000 13.202417 35.249091
14.000000 11.362826 35.698504
14.000000 9.538414 36.241872
14.000000 7.736527 36.877006
14.000000 5.964421 37.601349
14.000000 4.229231 38.411984
14.000000 2.537945 39.305648
14.000000 0.897372 40.278741
14.000000 -0.685881 41.327346
14.000000 -2.205440 42.447239
14.000000 -3.655185 43.633912
14.000000 -5.029279 44.882587
14.000000 -6.322189 46.188235
14.000000 -7.528709 47.545599
14.000000 -8.643980 48.949213
14.000000 -9.663512 50.393426
14.000000 -10.583200 51.872422
14.000000 -11.399339 53.380246
14.000000 -12.108645 54.910826
14.000000 -12.708261 56.457999
14.000000 -13.195772 58.015535
14.000000 -13.569215 59.577163
14.000000 -13.827087 61.136594
14.000000 -13.968349 62.687550
14.000000 -13.992432 64.223785
14.000000 -13.899240 65.739112
14.000000 -13.689148 67.227432
14.000000 -13.363001 68.682750
14.000000 -12.922113 70.099206
14.000000 -12.368260 71.471097
29.000000 40.488876 50.930335
29.000000 40.842361 52.235712
29.000000 41.093402 53.567480
29.000000 41.240987 54.920278
29.000000 41.284524 56.288659
29.000000 41.223836 57.667111
29.000000 41.059168 59.050084
29.000000 40.791183 60.432010
29.000000 40.420960 61.807325
29.000000 39.949989 63.170489
29.000000 39.380168 64.516015
29.000000 38.713790 65.838484
29.000000 37.953540 67.132572
29.000000 37.102477 68.393067
29.000000 36.164030 69.614894
29.000000 35.141976 70.793132
29.000000 34.040432 71.923039
29.000000 32.863833 73.000063
29.000000 31.616917 74.019868
29.000000 30.304704 74.978348
29.000000 28.932478 75.871643
29.000000 27.505765 76.696156
29.000000 26.030310 77.448568
29.000000 24.512054 78.125848
29.000000 22.957110 78.725270
29.000000 21.371739 79.244419
29.000000 19.762326 79.681205
29.000000 18.135351 80.033870
29.000000 16.497364 80.300993
29.000000 14.854962 80.481499
29.000000 13.214759 80.574661
29.000000 11.583357 80.580104
29.000000 9.967328 80.497806
29.000000 8.373177 80.328098
29.000000 6.807324 80.071664
29.000000 5.276074 79.729536
29.000000 3.785593 79.303092
29.000000 2.341882 78.794049
29.000000 0.950755 78.204456
29.000000 -0.382187 77.536689
29.000000 -1.651576 76.793435
29.000000 -2.852301 75.977688
29.000000 -3.979527 75.092732
29.000000 -5.028715 74.142130
29.000000 -5.995641 73.129711
29.000000 -6.876410 72.059551
29.000000 -7.667477 70.935959
29.000000 -8.365656 69.763459
29.000000 -8.968136 68.546774
29.000000 -9.472491 67.290801
29.000000 -9.876690 66.000598
29.000000 -10.179105 64.681361
29.000000 -10.378518 63.338402
29.000000 -10.474128 61.977128
29.000000 -10.465547 60.603020
29.000000 -10.352813 59.221611
29.000000 -10.136377 57.838465
29.000000 -9.817112 56.459151
29.000000 -9.396304 55.089221
29.000000 -8.875646 53.734194
29.000000 -8.257235 52.399524
29.000000 -7.543561 51.090587
29.000000 -6.737499 49.812652
29.000000 -5.842294 48.570866
29.000000 -4.861549 47.370229
29.000000 -3.799216 46.215575
29.000000 -2.659570 45.111554
29.000000 -1.447202 44.062611
29.000000 -0.166993 43.072971
29.000000 1.175903 42.146617
29.000000 2.576077 41.287280
29.000000 4.027892 40.498420
29.000000 5.525501 39.783214
29.000000 7.062875 39.144542
29.000000 8.633824 38.584975
29.000000 10.232020 38.106766
29.000000 11.851030 37.711842
29.000000 13.484333 37.401792
29.000000 15.125353 37.177864
29.000000 16.767483 37.040961
29.000000 18.404109 36.991634
29.000000 20.028642 37.030081
29.000000 21.634541 37.156147
29.000000 23.215339 37.369326
29.000000 24.764670 37.668758
29.000000 26.276297 38.053237
29.000000 27.744132 38.521217
29.000000 29.162265 39.070811
29.000000 30.524985 39.699808
29.000000 31.826806 40.405674
29.000000 33.062485 41.185567
29.000000 34.227047 42.036347
29.000000 35.315802 42.954588
29.000000 36.324367 43.936593
29.000000 37.248680 44.978407
29.000000 38.085019 46.075836
29.000000 38.830017 47.224459
29.000000 39.480675 48.419654
29.000000 40.034371 49.656606
29.000000 40.488876 50.930335
