-75.68 36.81 27.94
-76.12 36.93 27.47
-76.42 36.64 27.31
-75.64 37.12 27.47
-76.13 37.00 27.36
-75.55 38.26 27.85
-76.22 37.79 27.58
-76.02 38.27 27.23
-75.53 37.66 27.52
-76.02 37.55 27.39
-75.74 38.20 27.57
-76.26 38.17 27.32
-76.10 39.25 27.48
-75.67 38.87 27.43
-76.18 38.82 27.21
-76.41 39.40 27.19
-76.38 40.35 27.58
-75.92 39.53 27.28
-75.81 40.06 27.35
-76.28 39.91 27.29
-75.91 41.00 27.75
-75.54 40.51 27.25
-76.02 40.62 27.37
-75.95 41.28 27.22
-76.48 41.29 26.92
-75.58 42.03 28.06
-76.24 41.88 27.56
-75.69 41.71 27.15
-76.17 41.84 27.25
-75.62 42.38 26.99
-76.08 42.45 27.18
-75.75 42.59 27.80
-76.41 42.51 27.39
-76.14 43.23 27.33
-75.80 42.83 27.19
-76.28 42.95 27.28
-75.68 43.33 27.29
-75.68 43.85 27.45
-76.36 43.64 26.89
-76.19 43.56 27.22
-75.91 43.93 27.24
-76.41 44.12 27.23
-75.53 45.16 27.38
-76.05 45.13 27.14
-76.41 46.38 27.69
-75.95 45.69 27.14
-76.44 45.86 27.16
-75.68 46.37 27.26
-76.17 46.25 27.14
-75.81 46.55 27.58
-75.99 47.09 27.29
-75.55 46.86 27.38
-76.04 46.74 27.26
-75.75 47.34 27.51
-76.27 47.35 27.19
-75.67 47.98 27.38
-76.18 47.93 27.17
-76.40 48.50 27.15
-75.79 49.09 27.40
-76.28 48.99 27.27
-75.99 49.60 27.48
-75.90 50.20 27.43
-76.42 50.20 27.12
-75.61 50.63 27.77
-75.61 50.55 27.46
-76.10 50.71 27.51
-75.51 51.09 27.49
-75.99 51.25 27.54
-76.50 51.19 27.33
-75.74 52.48 27.96
-75.79 53.38 28.30
-76.32 54.43 28.71
-75.85 55.10 29.13
-76.35 55.30 29.09
-75.77 56.48 29.59
-75.80 57.36 29.97
-75.82 58.18 30.43
-76.32 58.37 30.42
-76.00 59.40 31.16
-75.51 60.25 31.88
-76.01 60.20 31.67
-76.49 60.34 31.73
-75.52 61.07 32.36
-76.03 61.01 32.14
-75.88 61.44 32.35
-75.52 61.84 32.91
-76.04 61.82 32.64
-75.89 62.25 32.84
-76.38 62.41 32.86
-75.56 63.50 33.83
-76.05 63.42 33.65
-75.55 64.26 34.39
-76.05 64.19 34.20
-75.89 65.35 35.03
-76.39 66.30 35.58
-75.55 67.33 36.63
-76.05 67.26 36.43
-75.87 68.39 37.32
-75.99 69.43 38.35
-75.77 70.45 39.43
-75.87 71.45 40.54
-75.65 72.44 41.68
-75.74 73.44 42.80
-76.50 74.49 43.83
-76.21 75.29 46.31
-75.53 76.46 48.47
-76.05 76.41 48.23
-75.79 77.30 50.59
-76.08 78.47 53.79
-75.74 78.99 63.13
-75.83 79.61 58.47
-76.39 79.93 58.20
-87.98 -30.62 70.00
-87.79 -30.84 68.24
-88.33 -30.77 68.70
-87.68 -30.73 67.34
-88.24 -30.78 67.61
-88.09 -31.15 65.63
-87.86 -30.57 65.46
-88.42 -30.62 65.73
-88.10 -30.29 64.83
-87.93 -29.95 64.30
-87.55 -29.68 64.02
-88.18 -29.72 63.60
-88.01 -29.35 63.11
-87.65 -29.18 62.68
-88.25 -29.10 62.44
-87.50 -28.92 62.02
-88.13 -28.94 61.63
-87.77 -28.78 61.19
-88.35 -28.62 61.08
-87.66 -28.64 60.35
-88.23 -28.45 60.29
-87.89 -28.35 59.76
-88.43 -28.04 59.86
-87.75 -28.12 59.06
-88.33 -27.96 58.95
-87.98 -27.83 58.46
-87.81 -27.47 57.96
-88.39 -27.34 57.81
-87.52 -27.29 56.85
-88.02 -27.09 57.49
-87.85 -26.72 57.01
-88.50 -26.88 56.43
-88.11 -26.54 56.24
-88.00 -26.47 55.32
-88.21 -26.08 54.88
-88.03 -25.69 54.43
-88.27 -25.44 53.78
-88.09 -25.03 53.36
-87.73 -24.55 52.71
-88.33 -24.78 52.71
-88.20 -24.61 51.93
-87.57 -24.23 52.17
-87.81 -23.99 51.50
-88.39 -24.14 51.61
-88.18 -23.59 51.40
-87.60 -23.45 51.27
-87.81 -23.07 50.82
-88.41 -23.33 50.77
-87.64 -22.74 50.29
-88.20 -22.79 50.55
-88.46 -22.63 49.77
-87.86 -22.37 49.81
-87.71 -22.12 49.17
-88.33 -22.45 49.02
-87.88 -21.57 48.96
-88.48 -22.20 47.37
-87.89 -20.70 48.20
-87.92 -21.24 46.42
-87.53 -20.92 46.22
-88.19 -21.11 45.60
-87.57 -21.43 44.47
-88.13 -21.25 44.40
-87.71 -20.77 44.44
-88.44 -21.30 43.34
-88.15 -20.41 43.61
-87.79 -20.23 43.21
-88.43 -20.37 42.68
-87.64 -19.97 42.60
-88.26 -19.99 42.23
-87.86 -19.64 42.07
-88.48 -19.68 41.69
-87.67 -19.19 41.73
-88.25 -19.05 41.60
-87.84 -18.64 41.52
-88.34 -18.20 41.81
-87.67 -18.28 41.04
-88.24 -18.13 40.93
-87.86 -17.85 40.67
-88.45 -17.78 40.43
-87.65 -17.33 40.42
-88.25 -17.27 40.17
-87.84 -16.84 40.12
-88.41 -16.72 39.97
-88.14 -16.86 38.34
-87.64 -16.38 39.79
-88.22 -16.27 39.61
-87.79 -15.78 39.66
-88.38 -15.67 39.49
-88.04 -16.15 38.26
-87.76 -15.61 38.10
-87.62 -15.38 39.24
-88.19 -15.25 39.10
-87.79 -14.87 38.98
-88.34 -14.61 39.02
-88.31 -15.35 38.05
-87.60 -14.44 38.61
-88.17 -14.25 38.54
-87.77 -13.90 38.37
-88.37 -13.86 38.10
-88.27 -14.37 37.60
-88.04 -13.65 37.21
-87.58 -13.44 38.04
-88.15 -13.29 37.93
-87.74 -12.87 37.86
-88.31 -12.71 37.75
-87.51 -12.26 37.74
-88.11 -12.20 37.49
-87.70 -11.80 37.40
-88.29 -11.72 37.19
-88.10 -11.28 36.82
-87.69 -10.85 36.77
-88.27 -10.72 36.62
-87.54 -10.60 36.14
-88.20 -11.05 36.29
-87.86 -10.49 36.68
-88.43 -10.40 36.27
-87.82 -9.54 36.26
-88.30 -9.84 36.38
-87.59 -8.65 35.92
-88.21 -8.67 35.56
-87.55 -7.55 35.50
-87.69 -8.41 35.30
-87.93 -6.97 34.99
-87.69 -7.32 34.68
-88.21 -7.18 34.78
-88.04 -6.16 35.14
-87.85 -5.69 34.81
-88.44 -5.93 34.81
-87.99 -6.44 34.33
-88.49 -6.32 34.46
-88.00 -5.09 34.67
-87.79 -4.57 34.41
-88.42 -4.95 34.21
-87.96 -5.45 33.85
-88.44 -5.43 34.11
-87.60 -5.00 34.39
-88.18 -4.86 33.90
-87.50 -4.29 34.27
-88.02 -4.41 34.15
-87.74 -3.42 34.04
-87.91 -2.90 33.77
-88.29 -2.56 33.59
-87.77 -3.48 34.03
-88.39 -3.23 33.39
-87.70 -2.34 33.57
-87.87 -1.82 33.31
-88.46 -2.02 33.36
-88.26 -1.53 33.06
-87.79 -2.37 33.35
-87.90 -1.10 33.33
-87.76 -0.41 33.29
-87.57 0.02 32.90
-88.20 -0.36 32.72
-88.33 0.35 32.72
-87.68 -0.38 32.92
-87.70 0.74 32.91
-87.52 1.13 32.48
-88.14 0.77 32.32
-88.29 1.44 32.25
-87.72 0.85 32.07
-88.18 0.78 32.45
-87.66 1.82 32.44
-88.10 1.87 31.87
-87.98 1.60 31.89
-87.90 2.34 31.72
-87.62 2.90 31.96
-88.23 2.61 31.90
-88.00 3.24 31.78
-87.70 3.40 31.40
-88.20 3.25 31.32
-88.18 3.72 31.46
-87.97 4.23 31.19
-87.63 4.19 31.15
-88.17 4.19 30.87
-87.51 5.18 31.17
-88.13 4.86 31.07
-87.91 5.41 30.84
-87.92 5.08 30.78
-88.01 6.20 30.93
-88.03 7.08 30.19
-87.69 6.79 29.81
-87.81 7.66 29.99
-88.40 7.76 29.81
-88.01 8.10 29.63
-87.84 8.42 29.10
-87.81 8.28 28.58
-88.39 8.71 29.16
-87.97 9.14 29.09
-87.58 9.19 28.43
-88.16 9.36 27.91
-87.74 9.78 28.98
-88.37 9.70 28.55
-87.94 10.21 28.59
-88.17 10.43 27.26
-87.73 10.73 28.33
-88.34 10.73 28.01
-87.93 11.13 27.90
-87.69 10.64 27.25
-87.73 11.63 27.61
-88.34 11.64 27.30
-87.92 12.06 27.22
-87.73 12.50 26.85
-88.35 12.45 26.48
-87.61 11.86 26.10
-88.13 12.09 26.06
-87.91 13.03 26.59
-87.59 12.79 25.63
-88.07 12.87 25.80
-87.70 13.54 26.30
-88.31 13.56 26.02
-87.88 14.06 26.03
-88.46 14.21 25.92
-87.69 14.46 25.62
-87.89 13.69 25.21
-88.38 13.82 25.31
-88.27 14.43 25.29
-88.27 14.62 25.50
-87.85 15.07 25.46
-88.44 15.16 25.26
-87.54 15.19 25.08
-88.02 14.99 25.07
-88.50 15.05 25.27
-87.64 15.60 25.20
-88.24 15.67 24.97
-87.79 16.24 25.08
-88.41 16.24 24.77
-87.97 15.79 24.79
-88.47 15.95 24.84
-87.67 16.43 25.02
-88.20 16.45 24.70
-87.58 17.10 24.91
-88.08 17.02 24.74
-87.69 17.64 24.98
-88.29 17.68 24.72
-88.06 18.31 24.59
-87.79 17.66 24.96
-88.36 17.82 24.45
-87.74 18.47 24.66
-88.27 18.49 24.34
-87.60 18.95 24.78
-88.24 18.81 24.29
-88.01 19.28 24.35
-87.53 20.18 24.46
-88.16 20.08 24.03
-87.92 19.94 24.26
-88.40 19.74 24.25
-87.64 20.38 24.19
-87.55 21.05 24.09
-88.09 21.33 23.96
-87.77 22.38 24.13
-87.86 21.95 23.63
-88.32 21.99 23.87
-88.28 22.57 24.66
-87.91 23.07 24.06
-88.49 22.94 24.20
-87.96 23.32 22.50
-88.34 23.04 23.19
-87.99 23.23 23.49
-87.75 23.32 24.22
-88.25 23.61 24.10
-87.83 24.36 23.80
-88.44 24.08 23.76
-88.37 23.93 23.63
-87.56 24.34 23.88
-88.07 24.30 23.65
-87.62 25.36 24.12
-87.74 25.70 23.61
-87.52 26.28 23.40
-88.16 25.83 23.17
-88.28 25.84 23.11
-87.64 26.40 23.45
-87.64 27.08 23.47
-88.29 26.60 23.19
-88.10 27.04 22.81
-88.24 26.68 22.74
-87.89 27.09 23.29
-88.42 27.11 22.97
-87.96 28.14 23.47
-87.89 28.94 23.30
-87.91 28.94 23.15
-88.45 28.99 22.78
-87.61 29.27 23.24
-87.71 30.39 23.29
-87.60 30.97 23.31
-88.12 31.22 23.21
-88.30 31.70 23.36
-87.74 32.26 23.10
-88.21 32.35 23.26
-87.81 33.30 23.28
-87.50 33.85 23.61
-88.04 33.91 23.22
-87.62 35.05 23.54
-88.15 35.09 23.19
-88.04 36.40 23.82
-87.58 36.63 23.75
-87.80 37.21 23.75
-88.29 37.12 23.59
-87.87 38.22 23.95
-88.41 38.29 23.55
-87.99 39.43 23.85
-87.55 40.22 24.09
-87.65 41.32 24.16
-87.75 42.45 24.16
-88.02 42.83 24.41
-88.23 42.56 24.29
-87.62 42.93 24.29
-88.11 43.11 24.31
-87.82 43.46 24.36
-87.70 43.87 24.72
-88.32 43.91 24.47
-88.33 43.69 24.30
-87.69 43.94 24.49
-88.19 44.13 24.49
-87.88 44.43 24.61
-87.74 45.15 25.32
-88.34 45.28 25.17
-88.36 44.56 24.70
-87.77 44.98 24.64
-88.24 45.10 24.73
-87.95 45.46 24.76
-87.51 46.47 25.25
-87.56 47.42 25.52
-88.09 47.47 25.14
-87.98 48.01 25.17
-88.49 48.23 25.11
-88.33 49.49 25.84
-87.68 48.60 25.43
-88.18 48.54 25.22
-87.55 49.09 25.54
-88.05 49.02 25.34
-87.76 49.62 25.59
-88.27 49.59 25.33
-87.66 50.20 25.56
-88.18 50.23 25.20
-87.83 50.64 25.74
-88.35 50.65 25.42
-87.73 51.23 25.70
-88.25 51.22 25.40
-87.65 52.45 26.24
-88.34 51.86 25.86
-88.16 52.17 25.31
-87.94 51.77 25.72
-88.44 51.73 25.48
-87.82 52.27 25.81
-88.32 52.23 25.57
-87.90 53.31 25.92
-88.39 53.23 25.75
-87.56 53.85 26.03
-87.94 54.27 25.91
-87.61 53.65 25.98
-88.09 53.81 26.01
-87.98 54.36 26.02
-88.49 54.32 25.77
-87.56 55.17 26.20
-88.05 55.35 26.20
-87.96 55.62 26.56
-87.75 55.65 26.32
-88.24 55.84 26.31
-87.61 56.12 26.46
-88.11 56.30 26.46
-87.78 57.50 26.89
-88.46 57.23 26.28
-87.80 56.60 26.58
-88.29 56.78 26.58
-87.68 57.10 26.66
-88.16 57.24 26.72
-87.90 58.44 27.17
-88.42 59.50 27.54
-88.43 60.29 28.04
-87.82 61.40 28.63
-88.32 62.37 29.14
-88.47 63.50 30.00
-87.83 64.50 30.77
-88.31 65.42 31.37
-87.98 66.39 32.20
-87.71 67.48 93.92
-88.27 68.37 33.76
-88.39 69.40 34.79
-88.20 70.47 35.76
-87.83 71.34 36.77
-87.62 72.34 37.87
-87.73 73.36 38.94
-87.53 74.38 40.00
-88.10 75.48 41.25
-87.86 76.40 42.51
-88.33 76.26 42.44
-88.42 77.22 43.62
-87.77 77.59 45.25
-88.28 77.58 44.95
-87.55 79.38 46.92
-87.80 80.03 46.69
-88.35 80.11 46.21
-87.98 81.37 49.87
-87.86 82.38 62.71
-88.39 82.37 62.38
-87.84 83.12 63.38
-100.32 -34.54 65.92
-99.96 -33.74 69.30
-100.33 -34.14 67.61
-99.55 -33.51 67.17
-99.77 -33.61 64.89
-100.41 -34.06 64.55
-100.09 -33.79 63.56
-100.04 -34.01 62.15
-99.67 -33.78 61.81
-100.37 -34.24 60.76
-100.15 -33.67 60.59
-100.47 -33.96 46.74
-99.59 -33.22 68.68
-99.79 -33.25 66.51
-99.77 -33.38 60.33
-100.41 -33.50 59.80
-99.66 -33.29 59.43
-100.25 -33.22 59.18
-99.89 -33.02 58.79
-99.75 -32.85 58.01
-100.41 -33.08 57.31
-100.10 -33.14 56.53
-100.07 -33.48 54.97
-99.68 -32.85 54.56
-100.24 -32.92 54.80
-100.06 -32.52 54.37
-100.10 -32.66 47.67
-99.67 -32.59 46.10
-100.27 -32.58 45.77
-99.73 -32.17 53.53
-100.33 -32.45 53.44
-99.54 -31.72 53.18
-100.11 -31.85 53.33
-99.79 -31.55 52.40
-99.73 -31.74 51.10
-99.54 -32.35 49.50
-99.71 -32.31 47.53
-99.88 -32.23 45.62
-99.68 -31.75 45.32
-100.34 -32.05 44.54
-99.90 -31.41 44.81
-99.69 -30.89 44.59
-100.30 -30.96 44.14
-99.91 -30.60 44.02
-99.73 -30.19 43.61
-100.35 -30.32 43.09
-99.96 -29.93 42.99
-99.70 -29.15 43.15
-100.36 -29.46 42.35
-99.96 -29.06 42.28
-99.85 -29.01 41.35
-100.39 -28.71 41.45
-100.06 -28.67 40.85
-100.07 -29.22 39.05
-100.47 -28.23 40.16
-100.08 -27.86 40.04
-99.70 -26.51 41.01
-100.34 -26.71 40.39
-99.94 -26.29 40.35
-99.73 -25.78 40.09
-100.35 -25.90 39.58
-100.01 -25.79 39.08
-99.86 -25.52 38.49
-100.01 -24.88 38.42
-99.87 -24.68 37.74
-100.44 -24.54 37.59
-99.98 -23.86 37.92
-100.47 -23.80 36.70
-99.99 -23.51 35.48
-99.75 -23.23 37.85
-100.07 -23.40 36.62
-100.05 -22.42 36.05
-99.89 -22.14 35.48
-100.45 -21.98 35.38
-100.05 -21.54 35.36
-99.94 -21.52 34.41
-100.06 -20.74 34.54
-99.93 -20.55 33.84
-100.07 -19.88 33.81
-99.83 -19.21 33.79
-100.48 -19.47 33.09
-100.06 -18.98 33.14
-99.93 -18.79 32.43
-100.02 -17.89 32.72
-99.78 -17.17 32.77
-100.38 -17.21 32.39
-99.93 -16.54 32.68
-99.84 -16.65 30.91
-99.78 -16.29 32.07
-100.38 -16.33 31.68
-99.96 -15.79 31.79
-100.44 -16.09 30.47
-99.81 -15.55 30.32
-100.30 -15.54 30.59
-99.73 -15.14 31.73
-100.31 -15.07 31.50
-99.91 -14.68 31.41
-99.98 -15.16 30.65
-100.41 -14.20 31.75
-99.76 -14.43 30.79
-100.27 -14.02 31.04
-99.86 -14.50 30.62
-100.45 -14.00 30.25
-99.53 -13.90 30.97
-100.39 -13.21 31.19
-99.65 -13.01 30.83
-100.22 -12.83 30.75
-100.16 -13.50 30.14
-100.09 -12.64 29.85
-99.77 -12.20 30.98
-100.35 -12.13 30.75
-99.54 -11.53 30.95
-100.14 -11.57 30.58
-99.76 -11.25 30.37
-100.34 -11.18 30.15
-99.62 -11.07 29.67
-100.16 -10.78 29.74
-100.47 -11.23 28.82
-99.76 -10.36 29.68
-100.33 -10.24 29.53
-99.54 -9.79 29.51
-100.13 -9.77 29.21
-99.74 -9.38 29.11
-100.34 -9.41 28.74
-99.52 -8.81 28.93
-100.12 -8.81 28.60
-99.71 -8.37 28.57
-100.30 -8.35 28.27
-100.07 -7.67 28.24
-99.64 -8.35 27.52
-100.15 -8.22 27.62
-99.84 -7.80 27.62
-100.19 -6.88 28.36
-100.01 -6.50 27.92
-99.71 -7.25 27.73
-100.23 -7.04 27.73
-99.94 -6.54 27.62
-100.15 -5.79 27.94
-100.44 -6.43 27.76
-99.85 -5.80 27.47
-100.39 -5.50 27.35
-99.53 -5.14 27.72
-100.10 -5.02 27.27
-100.49 -4.42 27.24
-100.08 -3.64 27.03
-99.99 -4.33 27.19
-100.42 -3.17 27.02
-99.84 -2.94 26.43
-100.38 -2.92 26.12
-100.03 -2.49 26.67
-99.81 -1.89 26.52
-100.40 -2.14 26.51
-99.81 -1.92 25.89
-99.99 -1.44 26.18
-99.78 -0.87 26.00
-100.38 -1.18 25.90
-100.11 -0.90 25.35
-99.95 -0.30 25.80
-99.73 0.28 25.63
-100.35 -0.13 25.41
-100.05 -0.02 25.00
-99.77 0.50 24.85
-99.85 1.09 25.76
-99.69 1.35 25.16
-100.34 0.79 24.74
-100.44 1.39 23.92
-99.73 1.48 24.36
-99.83 2.06 25.16
-100.46 1.62 24.89
-100.19 2.49 25.09
-100.35 2.14 23.73
-99.64 2.51 24.81
-99.82 3.02 24.54
-100.40 2.81 24.58
-100.21 3.27 24.25
-99.64 3.10 23.26
-100.10 2.77 23.43
-99.97 3.34 23.49
-99.61 3.58 24.33
-99.79 4.05 24.02
-100.39 3.78 23.98
-100.16 4.39 23.83
-99.75 4.39 23.18
-100.28 4.38 22.91
-99.57 4.63 23.83
-99.77 5.07 23.47
-100.36 4.79 23.42
-100.15 5.36 23.23
-99.69 5.23 22.86
-100.23 5.31 22.47
-99.55 5.62 23.26
-99.73 6.14 22.99
-100.35 5.76 22.81
-100.14 6.30 22.58
-99.97 6.13 22.46
-99.54 6.59 22.64
-99.72 7.06 22.32
-100.33 6.73 22.20
-100.12 7.29 22.01
-99.84 6.68 22.55
-100.40 6.84 22.04
-99.56 7.20 22.39
-100.06 7.32 22.50
-100.27 7.93 21.90
-100.08 8.40 21.57
-99.55 8.27 21.75
-100.04 8.37 21.89
-99.57 8.79 22.69
-100.15 9.48 22.03
-99.77 8.91 21.70
-100.32 9.27 21.48
-99.51 9.96 22.34
-99.89 10.31 22.16
-99.69 9.66 21.51
-100.26 10.14 21.12
-99.95 10.49 21.18
-100.07 10.80 21.87
-99.85 11.40 21.70
-100.47 11.26 21.22
-99.82 11.00 21.32
-100.05 11.76 21.24
-99.84 12.34 21.05
-100.46 12.20 20.57
-100.46 11.81 20.48
-99.57 11.87 21.24
-100.14 12.09 20.65
-99.52 12.77 20.82
-100.06 12.86 20.41
-99.95 14.09 20.49
-99.83 13.79 20.23
-100.34 13.73 20.03
-100.25 14.45 19.85
-99.87 15.43 20.35
-100.47 15.46 20.07
-99.74 14.53 20.03
-100.01 15.36 19.70
-100.50 15.22 19.62
-99.63 16.11 20.28
-100.26 16.00 19.83
-99.86 15.81 19.92
-100.35 15.70 19.78
-99.56 16.19 19.94
-100.09 16.47 19.82
-99.78 16.77 20.19
-100.40 16.73 19.82
-99.55 17.47 20.14
-100.16 17.39 19.74
-100.01 17.24 19.58
-99.70 18.14 20.06
-100.33 17.95 19.52
-100.13 18.47 19.25
-99.71 17.60 19.62
-100.24 17.94 19.43
-99.59 18.17 19.66
-99.65 19.24 19.84
-99.94 20.14 19.39
-100.46 20.43 19.25
-99.52 21.37 19.61
-100.06 21.45 19.21
-99.90 21.53 19.39
-100.47 22.29 18.80
-99.95 22.06 19.17
-100.49 22.40 18.97
-99.97 22.61 19.81
-99.82 22.86 19.20
-99.99 23.43 18.99
-99.67 22.75 19.31
-100.17 22.67 19.14
-99.59 23.47 19.12
-100.07 23.33 19.04
-99.84 24.26 18.83
-100.35 24.24 18.58
-99.89 25.23 19.13
-99.82 26.01 18.83
-100.37 26.16 18.33
-99.53 26.41 18.83
-99.94 27.29 18.68
-100.44 27.22 18.49
-99.63 27.60 18.79
-100.18 27.99 18.49
-99.55 28.33 18.57
-99.59 29.25 18.93
-99.68 30.41 18.93
-99.90 31.04 18.84
-100.41 31.28 18.77
-99.52 32.34 18.91
-100.02 32.29 18.71
-99.59 33.39 19.07
-100.08 33.30 18.92
-99.65 34.40 19.28
-100.16 34.39 19.00
-99.66 35.23 19.75
-100.20 35.35 19.28
-99.74 36.31 19.85
-100.29 36.46 19.33
-99.66 37.01 19.66
-100.18 37.06 19.30
-99.74 38.10 19.73
-100.23 38.03 19.55
-99.78 39.04 20.04
-100.28 39.02 19.78
-100.46 39.49 19.93
-100.01 40.49 20.43
-99.60 41.40 20.48
-99.66 42.41 20.66
-99.51 42.81 20.93
-100.02 43.06 20.82
-100.48 42.87 20.83
-99.73 43.44 20.82
-99.79 44.45 21.01
-100.30 45.49 21.42
-99.71 45.89 21.38
-100.20 46.08 21.38
-99.89 47.38 20.66
-99.91 48.23 21.23
-99.69 49.50 21.31
-100.18 49.53 20.14
-100.43 49.66 19.38
-99.52 51.42 21.72
-100.09 51.00 20.03
-99.99 51.01 19.75
-99.75 51.08 20.53
-100.35 51.47 19.62
-99.51 52.39 21.02
-100.15 52.27 20.58
-100.39 52.35 19.97
-99.59 53.48 20.83
-99.62 54.32 21.25
-100.12 55.32 21.71
-99.96 56.47 22.52
-100.43 56.34 22.43
-99.96 57.24 23.05
-100.44 57.14 22.91
-100.15 58.49 23.70
-100.16 59.31 24.14
-99.56 60.41 24.74
-100.05 61.37 25.25
-99.75 62.46 25.86
-100.23 63.39 26.42
-99.59 64.36 27.23
-100.08 65.31 27.77
-100.25 66.50 28.51
-99.59 67.41 29.41
-100.06 68.31 30.02
-100.20 69.40 30.95
-99.54 70.31 31.87
-100.03 70.50 31.84
-99.69 71.44 32.70
-99.69 72.19 33.28
-100.17 72.37 33.27
-99.51 73.29 34.17
-100.01 73.50 34.13
-99.65 74.38 35.09
-99.65 75.13 35.67
-100.14 75.35 35.59
-99.96 76.41 36.56
-100.47 76.40 36.26
-99.60 77.27 37.59
-100.09 77.45 37.57
-99.87 78.41 38.74
-100.39 78.46 38.32
-100.25 79.50 40.31
-99.83 80.42 41.90
-100.32 80.36 41.67
-99.69 81.50 43.84
-100.42 82.45 45.04
-99.87 83.47 47.80
-99.60 84.11 50.63
-100.09 84.31 50.58
-99.51 85.49 56.54
-100.01 85.42 56.34
-112.43 -43.96 51.16
-112.29 -43.84 47.91
-111.96 -43.16 56.57
-112.22 -43.10 55.63
-111.52 -42.81 54.69
-112.10 -43.04 54.67
-111.76 -42.66 53.89
-112.45 -43.50 52.92
-111.69 -42.88 52.50
-112.01 -43.17 51.02
-111.93 -43.28 49.82
-111.57 -43.12 49.38
-112.11 -43.40 47.57
-112.29 -42.96 47.23
-111.70 -42.64 45.00
-112.42 -43.41 43.47
-111.58 -42.24 48.68
-112.08 -42.37 47.11
-111.67 -41.90 47.15
-111.84 -41.96 45.02
-112.40 -42.42 42.97
-112.01 -42.00 42.94
-111.96 -42.32 41.43
-112.14 -41.88 41.09
-111.98 -41.58 40.54
-112.26 -41.65 39.44
-112.09 -40.91 48.32
-111.56 -41.01 45.46
-111.56 -40.70 40.54
-112.01 -40.88 39.60
-112.17 -40.29 39.48
-112.00 -39.93 39.03
-111.70 -39.78 37.92
-112.28 -40.04 37.87
-112.26 -39.67 35.44
-112.01 -39.13 38.23
-112.32 -39.39 36.84
-111.54 -38.57 36.75
-112.45 -39.25 35.07
-112.27 -38.88 34.64
-112.48 -38.56 34.13
-112.39 -38.66 32.98
-111.52 -37.89 38.76
-111.72 -38.10 36.46
-111.58 -37.97 35.66
-111.69 -37.69 34.10
-111.95 -37.68 33.13
-111.70 -37.13 35.92
-111.80 -37.46 32.47
-111.99 -37.05 32.09
-111.82 -36.69 31.64
-112.02 -36.33 31.19
-111.83 -35.89 30.86
-112.31 -34.74 30.92
-112.48 -34.83 28.83
-111.84 -33.58 31.31
-111.80 -33.96 29.78
-112.11 -34.26 28.37
-111.92 -33.80 28.07
-112.27 -34.29 26.39
-111.97 -33.19 27.02
-111.55 -30.66 23.30
-112.18 -30.97 22.54
-111.72 -30.15 23.07
-112.30 -30.19 22.70
-111.55 -29.83 22.58
-112.10 -29.63 22.53
-111.66 -28.95 22.87
-112.20 -28.73 22.86
-111.97 -28.06 22.85
-111.52 -27.27 23.33
-112.08 -27.20 23.11
-111.89 -26.71 22.86
-112.37 -25.58 22.86
-111.83 -25.49 22.67
-112.02 -25.10 22.26
-111.82 -24.60 22.02
-112.48 -25.33 21.31
-111.97 -23.94 21.99
-112.34 -20.09 14.19
-111.96 -19.35 16.13
-112.01 -18.80 15.03
-112.17 -18.22 14.88
-111.92 -17.45 15.00
-112.43 -16.46 14.78
-112.05 -15.82 14.43
-111.72 -15.34 15.99
-111.77 -14.81 14.86
-111.86 -13.79 15.29
-112.25 -13.95 14.42
-111.79 -11.63 14.49
-111.59 -6.53 16.21
-111.65 -5.42 16.40
-111.87 -2.65 11.02
-112.43 -0.80 9.47
-111.69 0.18 11.03
-112.41 0.19 8.93
-111.87 0.65 10.73
-111.68 1.13 10.43
-111.87 1.95 12.09
-112.27 4.37 9.74
-111.68 4.75 12.70
-111.66 5.90 11.96
-111.81 7.48 11.46
-111.86 8.50 11.72
-112.38 8.99 9.54
-111.67 10.10 10.63
-111.74 11.29 11.21
-112.48 10.88 9.20
-111.54 11.76 10.90
-111.72 12.24 10.59
-112.15 12.24 10.00
-111.96 13.32 10.60
-111.58 14.06 11.05
-112.05 13.77 10.09
-111.93 13.61 9.38
-112.47 13.55 10.55
-111.92 14.30 10.07
-112.39 14.34 10.28
-112.04 14.50 10.61
-112.08 15.47 10.91
-111.85 15.94 10.97
-112.12 15.82 9.93
-111.96 16.04 10.95
-111.97 16.85 11.47
-111.56 18.15 11.58
-112.03 17.96 11.57
-111.73 18.55 11.85
-112.30 18.91 11.07
-111.66 19.43 11.44
-112.21 20.41 11.44
-111.93 21.11 11.56
-111.87 22.02 11.10
-111.91 23.00 11.37
-112.43 23.07 10.99
-111.63 23.45 11.28
-111.68 24.47 11.50
-112.18 24.68 11.48
-111.60 25.21 11.26
-112.10 25.46 11.20
-111.58 25.89 11.97
-111.66 27.04 11.98
-111.72 28.13 12.07
-111.99 29.06 11.57
-111.54 30.08 12.04
-112.08 30.27 11.48
-111.63 31.26 11.99
-112.14 31.31 11.64
-111.66 32.19 12.32
-112.18 32.28 11.90
-111.55 32.82 12.24
-112.07 32.90 11.84
-111.75 33.39 12.23
-112.26 33.42 11.91
-111.79 34.31 12.56
-112.29 34.35 12.23
-111.65 34.79 12.70
-112.14 34.77 12.45
-111.85 35.36 12.69
-112.32 35.25 12.57
-111.69 35.77 12.93
-112.18 35.69 12.77
-111.89 36.35 12.92
-112.40 36.37 12.60
-111.51 37.33 13.40
-112.39 37.17 12.03
-111.77 36.90 12.95
-112.30 37.03 12.47
-111.92 37.26 13.26
-111.68 37.92 13.21
-112.16 37.87 11.96
-112.48 37.53 12.57
-111.85 38.05 12.92
-112.36 38.10 12.57
-111.53 38.28 13.15
-111.59 39.40 13.15
-112.26 38.93 12.30
-111.96 39.33 12.70
-112.13 39.79 12.86
-111.58 40.38 12.54
-112.20 40.88 12.91
-111.63 41.41 12.68
-111.82 41.91 12.77
-112.31 42.14 12.71
-112.20 43.49 13.21
-112.26 44.19 14.71
-112.25 45.25 13.94
-111.93 46.22 14.74
-111.96 47.11 15.09
-112.47 47.46 14.83
-111.83 48.38 15.71
-111.83 49.14 16.26
-111.52 50.45 17.09
-112.02 50.46 16.78
-111.85 50.76 17.19
-112.41 51.33 16.58
-112.08 51.47 16.95
-112.47 52.34 16.73
-111.66 53.35 17.74
-112.18 53.44 17.31
-111.71 54.33 17.94
-112.20 54.29 17.72
-111.73 55.20 18.31
-112.21 55.12 18.13
-111.59 56.37 19.07
-112.07 56.32 18.85
-111.59 57.17 19.54
-112.08 57.11 19.34
-111.76 58.37 20.26
-112.25 58.30 20.07
-112.10 59.47 20.83
-111.62 60.33 21.50
-112.10 60.27 21.31
-112.28 61.47 22.01
-111.80 62.31 22.72
-112.28 62.27 22.50
-111.81 63.12 23.19
-112.29 63.07 22.97
-111.67 64.35 23.83
-112.16 64.33 23.57
-111.83 65.48 24.66
-112.32 65.47 24.38
-111.83 66.25 25.19
-112.32 66.23 24.91
-111.68 67.42 25.94
-112.17 67.41 25.66
-111.68 68.18 26.48
-112.18 68.19 26.16
-111.83 69.30 27.33
-112.32 69.28 27.05
-111.67 70.44 28.14
-112.17 70.43 27.83
-111.67 71.18 28.70
-112.17 71.19 28.38
-111.80 72.24 29.65
-112.30 72.24 29.34
-111.65 73.39 30.46
-112.14 73.36 30.19
-111.77 74.42 31.46
-112.27 74.42 31.14
-111.60 75.49 32.40
-112.09 75.46 32.13
-111.58 76.19 33.04
-112.09 76.22 32.68
-111.72 77.25 34.01
-112.21 77.21 33.76
-111.55 78.34 34.91
-112.03 78.29 34.68
-111.69 79.43 35.82
-112.18 79.39 35.57
-112.00 80.45 36.52
-111.50 81.23 37.37
-111.99 81.18 37.13
-112.47 81.35 37.14
-111.91 82.40 38.78
-111.54 83.44 40.12
-112.02 83.37 39.92
-111.91 84.47 41.82
-111.65 85.21 43.40
-111.55 86.36 45.22
-112.39 87.50 47.07
-111.94 88.24 49.04
-112.48 88.39 48.40
-111.61 88.50 52.63
-123.85 -56.70 52.40
-124.09 -55.67 -18.99
-124.37 -54.48 -19.53
-124.12 -49.08 5.89
-124.30 -47.92 4.80
-123.62 -47.81 4.34
-124.14 -47.59 4.35
-124.33 -47.23 3.93
-123.65 -47.18 3.40
-124.17 -46.94 3.43
-123.82 -46.74 3.12
-124.35 -46.60 3.01
-123.64 -46.30 2.83
-124.18 -46.21 2.64
-123.84 -46.04 2.28
-124.37 -45.88 2.20
-123.69 -45.79 1.72
-124.22 -45.62 1.65
-124.44 -40.36 2.09
-123.69 -39.22 -3.55
-124.11 -34.74 0.34
-123.91 -33.56 -0.56
-124.38 -34.09 -1.89
-123.67 -32.74 2.38
-123.61 -33.15 0.91
-123.73 -33.14 -0.87
-123.88 -32.53 -0.95
-123.73 -32.32 -1.55
-123.93 -32.10 -2.15
-123.84 -30.57 -1.87
-124.29 -31.03 -3.09
-124.47 -30.61 -3.40
-123.68 -30.31 -2.41
-123.86 -29.92 -2.77
-123.70 -29.59 -3.22
-124.31 -30.29 -3.87
-123.95 -29.75 -4.32
-124.50 -29.96 -4.31
-124.29 -29.34 -4.36
-123.98 -29.10 -5.23
-124.41 -29.37 -6.18
-123.75 -28.35 -5.11
-124.00 -28.41 -6.08
-124.33 -28.01 -6.13
-123.75 -27.48 -5.72
-123.98 -27.50 -6.62
-123.73 -26.56 -6.27
-124.32 -27.05 -6.62
-124.41 -26.69 -7.08
-124.24 -25.66 -6.54
-124.44 -25.66 -6.78
-123.66 -25.20 -6.22
-124.37 -24.89 -6.40
-124.49 -24.56 -6.55
-124.01 -23.60 -5.92
-124.20 -22.97 -5.91
-123.63 -22.45 -5.25
-124.18 -21.86 -5.94
-123.60 -22.37 -6.11
-124.10 -22.19 -6.08
-123.79 -21.79 -6.05
-123.92 -20.88 -5.54
-124.32 -21.39 -6.27
-123.65 -21.21 -5.98
-124.11 -20.50 -5.91
-123.92 -20.06 -6.22
-124.10 -19.65 -6.56
-124.28 -20.12 -7.03
-123.91 -20.13 -6.51
-123.53 -19.24 -6.32
-123.90 -19.06 -6.67
-124.08 -18.67 -7.04
-124.49 -19.42 -7.10
-123.81 -19.36 -6.67
-124.38 -18.61 -7.32
-124.05 -18.40 -7.07
-123.67 -16.76 -7.27
-124.18 -16.71 -7.58
-123.52 -16.33 -7.02
-124.03 -16.28 -7.34
-123.74 -15.55 -7.20
-123.61 -14.90 -7.23
-124.16 -14.63 -7.82
-123.72 -14.41 -7.67
-124.29 -14.47 -8.04
-123.88 -13.84 -7.81
-123.90 -13.65 -7.99
-124.39 -13.76 -8.11
-123.71 -13.45 -7.47
-124.23 -13.34 -7.86
-123.57 -11.60 -7.57
-124.17 -11.95 -8.31
-124.35 -11.54 -8.65
-123.96 -12.47 -7.90
-124.49 -12.28 -8.39
-123.82 -11.96 -7.76
-124.36 -11.66 -8.38
-123.53 -10.72 -7.24
-124.15 -9.69 -8.26
-123.60 -9.47 -7.26
-124.21 -8.50 -8.20
-123.67 -8.26 -7.22
-123.55 -7.56 -7.32
-123.58 -6.62 -6.95
-123.84 -5.56 -7.51
-123.74 -4.77 -7.73
-123.79 -3.72 -7.51
-123.80 -2.90 -7.00
-124.05 -1.91 -7.48
-123.90 -1.43 -7.32
-124.49 -0.58 -8.14
-124.10 -0.81 -7.33
-123.59 -0.14 -6.38
-124.16 0.34 -7.25
-124.01 0.76 -7.01
-123.52 1.53 -6.19
-123.78 1.88 -7.41
-124.26 1.79 -7.55
-123.56 1.87 -6.62
-124.04 1.71 -6.68
-124.25 2.44 -6.84
-123.84 3.01 -6.69
-124.02 3.43 -7.04
-123.81 2.83 -7.08
-123.65 3.17 -6.73
-124.13 3.06 -6.85
-123.69 4.18 -6.49
-124.16 4.01 -6.53
-123.85 5.36 -5.69
-123.80 6.41 -6.27
-123.60 7.43 -6.48
-124.19 7.28 -6.95
-124.35 6.80 -7.03
-124.05 7.43 -6.81
-123.51 7.59 -5.73
-124.09 8.41 -6.54
-123.55 8.64 -5.53
-124.09 9.13 -5.91
-123.67 10.16 -5.97
-123.71 11.13 -5.69
-123.58 11.72 -5.67
-123.80 12.45 -5.86
-123.64 12.82 -5.57
-123.73 14.15 -5.77
-123.76 15.06 -5.41
-123.96 16.46 -4.93
-123.78 16.70 -4.46
-124.33 17.35 -5.08
-124.00 17.46 -4.70
-123.53 18.36 -4.07
-123.93 19.13 -4.59
-123.60 20.27 -3.50
-123.98 20.93 -3.88
-123.70 22.43 -3.28
-123.71 23.25 -2.81
-123.77 24.31 -2.68
-123.78 25.16 -2.26
-124.31 25.39 -2.84
-123.66 25.71 -2.23
-124.15 25.75 -2.55
-123.86 26.39 -2.37
-123.70 27.45 -1.45
-123.73 28.41 -1.18
-123.90 28.85 -1.00
-124.43 29.11 -1.63
-123.78 29.44 -1.02
-123.93 29.81 -0.75
-124.48 30.15 -1.50
-123.82 30.46 -0.85
-123.85 31.38 -0.54
-124.34 31.38 -0.81
-123.52 32.23 0.41
-123.54 33.14 0.72
-123.59 34.18 0.86
-124.09 34.52 0.64
-124.00 35.24 0.42
-123.69 35.49 0.61
-123.53 35.83 0.93
-124.04 36.26 0.58
-123.72 36.43 0.87
-123.74 37.27 1.29
-123.57 37.57 1.67
-124.11 38.15 1.10
-123.76 38.15 1.64
-123.59 39.16 2.62
-123.80 39.86 2.42
-124.30 40.22 2.17
-123.71 41.35 2.69
-123.74 42.32 2.91
-123.76 43.15 3.34
-123.76 43.89 3.88
-124.30 44.48 3.27
-123.97 44.62 3.62
-124.48 44.98 3.36
-123.88 45.36 3.35
-123.55 46.48 4.43
-123.54 47.17 5.06
-124.08 47.44 4.36
-123.63 48.42 4.83
-124.13 48.48 4.46
-124.48 49.21 4.46
-123.67 50.14 5.56
-124.17 50.23 5.14
-123.55 51.41 6.14
-124.00 51.23 6.12
-123.65 52.26 7.36
-124.17 52.45 6.77
-123.67 53.12 7.72
-124.19 53.29 7.17
-123.65 54.49 8.98
-123.65 55.23 9.53
-123.50 56.39 10.28
-123.98 56.37 10.02
-123.67 56.84 10.42
-124.17 56.92 10.01
-123.56 57.41 10.37
-123.57 58.23 10.80
-124.07 58.36 10.31
-123.71 58.57 11.13
-124.24 58.81 10.44
-123.61 59.19 10.99
-124.11 59.28 10.55
-123.64 60.11 11.24
-124.11 60.07 11.02
-123.83 61.43 11.72
-124.31 61.40 11.48
-123.95 62.09 12.07
-123.69 61.87 11.88
-124.16 61.79 11.72
-123.86 62.34 11.99
-124.32 62.25 11.84
-123.87 63.17 12.39
-124.35 63.12 12.17
-123.91 64.11 12.61
-124.38 64.04 12.42
-123.79 65.41 13.11
-124.26 65.36 12.89
-123.89 66.26 14.34
-124.41 66.43 13.75
-123.82 67.39 16.00
-124.33 67.49 15.53
-123.64 68.33 17.10
-124.10 68.24 16.96
-123.54 69.33 19.01
-123.68 70.37 19.95
-124.19 70.50 19.44
-123.99 71.40 20.61
-123.62 72.34 22.04
-124.14 72.49 21.47
-123.95 73.47 22.52
-123.62 73.83 23.12
-124.12 73.90 22.69
-123.99 74.43 22.70
-123.60 75.25 24.34
-124.09 75.27 23.99
-123.59 75.96 24.93
-124.08 75.99 24.57
-123.92 76.34 24.88
-123.57 77.38 26.15
-124.06 77.38 25.85
-123.55 78.03 26.88
-124.04 78.06 26.50
-123.89 78.44 26.76
-124.01 79.38 27.90
-123.83 80.42 28.86
-123.93 81.29 30.13
-123.76 82.34 31.08
-123.87 83.26 32.27
-123.69 84.25 33.34
-123.81 85.25 34.39
-123.74 86.42 36.12
-123.52 87.25 37.48
-124.50 87.49 37.03
-123.64 88.23 38.59
-123.95 89.50 39.48
-124.43 89.48 39.18
-123.91 90.06 40.40
-124.39 90.03 40.12
-123.71 91.41 43.82
-124.22 91.49 43.33
-123.62 91.75 45.18
-124.10 91.67 45.00
-123.80 92.93 68.10
-124.35 93.12 67.34
-123.90 93.81 49.00
-124.39 94.07 48.81
-135.69 -85.29 28.20
-136.22 -85.20 28.00
-135.54 -85.07 27.55
-136.05 -84.81 27.64
-135.70 -84.57 27.37
-136.22 -84.39 27.32
-136.05 -83.98 27.00
-135.69 -83.64 26.89
-136.22 -83.56 26.69
-136.05 -83.16 26.35
-135.69 -82.84 26.21
-136.22 -82.72 26.07
-135.55 -81.60 -1.33
-135.75 -62.84 6.30
-135.95 -62.71 5.56
-136.40 -63.01 3.86
-135.78 -62.29 5.26
-136.01 -62.39 4.17
-135.86 -62.15 3.61
-136.41 -62.26 3.12
-135.98 -61.27 3.98
-135.82 -60.99 3.47
-136.14 -56.64 -25.93
-136.05 -56.18 -1.41
-135.89 -55.92 -1.96
-136.43 -55.94 -2.28
-136.06 -55.52 -2.29
-135.63 -56.43 -25.94
-135.81 -56.11 -26.35
-136.31 -56.23 -26.23
-135.64 -55.69 -26.61
-136.14 -55.85 -26.55
-135.90 -55.24 -2.79
-136.45 -55.35 -3.25
-135.80 -55.24 -26.85
-136.30 -55.40 -26.78
-135.63 -54.87 -27.20
-136.14 -55.00 -27.09
-135.80 -54.51 -27.55
-136.30 -54.62 -27.42
-136.03 -52.00 -4.47
-135.78 -50.86 -3.74
-135.95 -50.49 -4.12
-135.78 -50.13 -4.50
-136.31 -50.08 -4.73
-135.96 -49.72 -4.82
-135.74 -48.88 -4.53
-136.31 -49.18 -5.26
-135.95 -48.85 -5.39
-136.46 -48.63 -5.38
-135.81 -48.70 -6.07
-136.32 -48.51 -6.11
-135.99 -48.34 -6.47
-135.79 -47.76 -6.55
-136.39 -48.32 -7.64
-135.96 -47.22 -30.07
-136.31 -47.12 -31.58
-135.87 -46.01 -31.58
-136.39 -45.59 -31.78
-135.61 -44.17 -32.15
-135.88 -41.01 -33.55
-136.05 -40.58 -33.82
-135.54 -40.41 -33.87
-135.88 -40.22 -34.18
-136.39 -40.12 -34.32
-135.54 -39.67 -34.56
-136.05 -39.86 -34.54
-135.89 -39.49 -34.88
-136.40 -39.39 -35.03
-136.06 -39.10 -35.20
-135.89 -38.71 -35.52
-135.54 -37.32 -36.47
-135.53 -36.39 -36.91
-135.50 -35.38 -37.27
-135.73 -34.20 -16.13
-135.83 -30.81 -38.71
-135.53 -29.92 -15.66
-136.04 -29.72 -15.69
-136.34 -30.35 -38.98
-135.75 -27.97 -17.55
-135.95 -26.55 -16.97
-135.78 -26.19 -16.65
-136.28 -25.96 -16.66
-136.47 -25.34 -16.64
-135.84 -24.86 -16.70
-136.33 -24.67 -16.67
-135.51 -24.46 -16.17
-136.04 -24.12 -16.82
-135.61 -22.82 -16.60
-136.11 -22.74 -16.94
-135.51 -21.82 -17.03
-136.00 -21.90 -17.18
-136.49 -21.73 -17.13
-135.56 -19.85 -16.36
-136.04 -19.99 -16.44
-136.27 -2.71 -23.77
-136.04 1.31 -30.56
-135.65 1.80 -19.23
-136.18 1.94 -19.34
-136.49 4.42 -20.28
-136.40 6.22 -19.83
-136.16 8.20 -38.77
-136.47 9.33 -17.92
-136.18 9.97 -17.72
-135.51 10.60 -16.52
-136.06 11.40 -17.30
-135.74 11.53 -16.96
-135.65 12.46 -17.40
-135.84 13.14 -17.52
-135.83 13.75 -16.80
-136.32 14.12 -17.03
-136.32 14.65 -36.56
-136.21 15.63 -23.80
-135.88 15.86 -35.74
-135.69 16.33 -36.02
-136.25 16.22 -36.41
-136.46 15.74 -33.87
-135.87 16.08 -33.80
-136.31 16.13 -33.63
-136.01 16.35 -33.42
-136.45 16.44 -33.29
-135.76 17.03 -15.75
-135.55 18.35 -16.47
-136.03 18.40 -16.78
-136.40 19.32 -16.98
-135.93 19.91 -16.49
-135.67 21.46 -15.99
-135.54 22.07 -16.04
-136.04 22.25 -16.54
-135.72 22.67 -16.08
-136.26 23.15 -16.98
-135.85 25.17 -16.36
-136.37 25.53 -17.10
-135.79 26.99 -16.51
-136.29 27.16 -17.00
-136.43 27.47 -16.65
-135.94 28.03 -15.61
-136.42 28.10 -15.97
-135.89 29.11 -13.99
-136.39 29.32 -14.54
-135.85 30.23 -12.43
-135.82 30.72 -11.54
-136.36 31.30 -12.61
-135.90 32.10 -11.89
-135.95 33.19 -11.85
-135.99 34.27 -11.78
-136.41 35.43 -12.89
-136.39 37.47 -11.05
-135.58 39.62 -8.57
-136.08 40.05 -8.92
-135.63 41.44 -8.00
-135.67 42.47 -7.89
-135.70 43.46 -7.72
-135.68 44.06 -7.00
-135.56 45.38 -6.52
-136.07 45.88 -6.99
-135.78 46.26 -7.01
-136.22 47.00 -6.22
-135.68 48.43 -6.18
-135.70 49.33 -5.89
-135.84 50.34 -4.97
-135.70 50.79 -4.83
-136.17 51.03 -4.92
-135.88 51.34 -4.84
-135.73 52.44 -4.04
-135.89 52.92 -3.95
-136.36 53.15 -4.04
-135.79 54.39 -3.73
-135.71 54.54 -2.31
-136.24 55.23 -3.10
-135.89 55.11 -2.36
-136.36 55.36 -2.47
-135.75 56.24 -1.61
-135.77 57.13 -1.33
-136.24 57.37 -1.42
-135.95 58.45 -0.88
-135.96 59.28 -0.50
-135.51 60.10 0.16
-135.98 60.11 -0.14
-136.45 60.40 -0.32
-135.82 60.46 0.15
-135.83 61.25 0.59
-135.98 62.31 1.43
-135.82 63.38 2.27
-135.97 64.45 3.10
-135.81 65.48 4.00
-135.70 66.19 6.28
-136.28 66.55 6.85
-136.14 68.48 8.01
-135.84 69.45 8.73
-136.29 69.54 8.88
-135.69 72.02 10.59
-136.16 72.29 10.43
-135.86 72.54 10.59
-136.33 72.78 10.49
-135.82 75.26 13.08
-136.29 75.46 13.03
-136.27 80.41 6.91
-136.33 80.93 16.17
-135.95 82.18 8.59
-135.93 83.37 17.02
-135.77 84.45 17.86
-136.24 85.43 18.24
-136.36 86.37 19.33
-135.87 87.45 20.79
-135.70 88.46 21.74
-135.83 89.44 22.77
-135.60 90.23 27.01
-136.29 90.93 28.56
-135.79 92.49 32.73
-136.27 92.50 32.40
-135.98 93.49 35.42
-135.89 94.45 37.54
-135.68 95.43 41.65
-135.69 96.48 44.66
-135.54 97.09 47.57
-135.51 97.71 48.39
-136.01 98.02 48.11
-135.52 98.54 48.80
-136.04 98.99 48.24
-148.28 -71.08 1.81
-148.11 -70.78 1.34
-147.65 -70.65 0.00
-148.29 -70.48 0.87
-148.15 -68.26 -26.75
-148.06 -66.63 -27.68
-148.25 -65.98 -27.63
-148.15 -64.54 -28.39
-147.67 -64.38 -28.78
-148.26 -61.40 -28.76
-148.46 -60.54 -28.92
-148.07 -54.29 -20.13
-147.90 -53.85 -20.39
-148.08 -53.51 -20.77
-148.39 -52.66 -20.75
-148.01 -51.86 -20.21
-147.97 -50.54 -20.13
-148.46 -50.20 -19.95
-147.78 -49.91 -20.12
-148.28 -49.74 -20.17
-147.94 -49.42 -20.31
-148.45 -49.32 -20.46
-147.76 -48.93 -20.51
-148.28 -48.85 -20.68
-147.93 -48.45 -20.71
-148.44 -48.42 -20.95
-147.75 -47.98 -20.92
-148.27 -47.96 -21.19
-147.93 -47.68 -21.38
-148.44 -47.61 -21.57
-148.27 -47.16 -21.82
-147.93 -46.92 -22.05
-148.43 -46.70 -22.05
-147.77 -46.65 -22.54
-148.40 -45.53 -22.18
-148.22 -44.99 -22.30
-148.38 -44.45 -22.43
-147.85 -39.79 -30.32
-148.36 -38.55 -26.45
-147.74 -39.11 -27.74
-147.96 -39.45 -29.03
-147.80 -38.08 -25.55
-148.20 -38.38 -27.07
-148.37 -37.89 -27.27
-147.59 -34.75 -27.09
-147.62 -32.81 -29.60
-148.27 -29.29 -21.71
-148.20 -16.63 -29.10
-148.38 -7.50 -22.38
-147.81 -7.92 -36.03
-148.14 -7.43 -35.99
-147.66 -6.20 -23.02
-148.38 -5.74 -23.57
-148.06 0.15 -39.97
-148.24 1.03 -39.72
-148.27 2.12 -39.59
-148.30 3.13 -39.38
-148.09 4.41 -39.07
-148.47 3.69 -39.35
-148.33 4.26 -39.32
-147.87 5.43 -38.70
-148.43 5.05 -39.40
-148.49 4.65 -39.08
-147.89 5.24 -38.85
-148.34 5.03 -38.83
-148.04 5.90 -38.96
-147.86 6.37 -39.23
-148.39 6.44 -39.41
-148.02 6.99 -39.32
-148.33 8.24 -38.96
-147.53 7.63 -39.13
-147.98 7.78 -39.08
-148.44 7.70 -39.21
-148.15 8.31 -39.01
-147.95 8.85 -38.81
-148.01 8.84 -38.94
-147.72 9.22 -38.92
-148.18 9.37 -38.87
-147.73 9.97 -38.34
-148.26 10.03 -38.54
-148.45 10.32 -39.01
-147.58 9.62 -38.71
-148.03 9.82 -38.71
-148.48 9.68 -38.77
-147.74 10.18 -38.68
-148.20 10.37 -38.67
-147.88 10.75 -38.26
-147.60 10.63 -38.52
-148.07 10.91 -38.62
-147.78 11.26 -38.57
-147.63 12.24 -37.38
-148.21 11.66 -38.30
-148.36 12.39 -38.27
-148.24 11.50 -38.63
-147.64 11.82 -38.55
-148.09 11.95 -38.46
-147.80 12.27 -38.38
-148.25 12.42 -38.33
-147.81 12.61 -37.77
-147.62 13.25 -37.84
-148.17 13.09 -38.29
-147.65 12.64 -38.13
-148.10 12.79 -38.07
-147.81 13.12 -38.00
-148.26 13.16 -37.82
-148.29 14.24 -37.73
-148.31 15.25 -37.55
-148.35 16.37 -37.51
-148.36 17.19 -37.10
-148.38 18.22 -36.95
-148.40 19.15 -36.69
-147.54 20.20 -36.57
-147.98 20.10 -36.68
-148.43 20.23 -36.61
-148.05 21.36 -36.28
-148.30 20.75 -36.54
-147.58 21.41 -36.66
-148.02 21.22 -36.66
-148.46 21.26 -36.48
-148.40 21.68 -36.46
-147.89 21.82 -36.70
-148.34 21.91 -36.58
-147.61 22.50 -36.60
-148.06 22.39 -36.70
-148.36 23.14 -36.45
-147.92 22.90 -36.63
-148.37 23.03 -36.56
-148.09 23.45 -36.61
-148.04 24.04 -23.94
-148.48 23.87 -23.96
-148.04 24.82 -23.47
-148.49 24.69 -23.54
-148.45 25.75 -35.99
-147.72 26.44 -36.31
-148.25 26.51 -35.96
-147.90 26.97 -36.53
-148.42 27.09 -36.12
-148.16 29.55 -35.85
-148.45 34.49 -29.61
-148.00 36.41 -27.99
-148.02 37.39 -27.82
-148.48 38.37 -27.41
-148.48 39.11 -26.92
-148.19 40.15 -26.34
-147.62 41.47 -25.65
-148.06 41.34 -25.73
-147.65 43.22 -25.06
-148.09 43.08 -25.11
-147.81 44.42 -24.46
-148.25 44.34 -24.60
-147.82 45.25 -24.10
-148.26 45.15 -24.22
-147.68 46.40 -23.44
-148.12 46.31 -23.56
-147.83 47.46 -22.64
-148.28 47.43 -22.84
-147.69 47.91 -22.51
-148.14 47.85 -22.67
-147.85 49.15 -21.97
-148.30 49.08 -22.13
-147.72 50.38 -21.42
-148.16 50.25 -21.49
-147.87 51.44 -20.63
-148.31 51.38 -20.81
-147.87 52.17 -20.14
-148.32 52.11 -20.32
-147.73 53.33 -19.50
-148.18 53.25 -19.64
-147.89 54.48 -18.85
-148.33 54.37 -18.94
-147.90 55.28 -18.46
-148.33 55.15 -18.53
-147.76 56.45 -17.83
-148.20 56.35 -17.94
-148.35 57.46 -17.23
-147.91 58.27 -16.60
-148.35 58.19 -16.74
-148.34 59.50 -15.53
-147.90 60.27 -14.84
-148.34 60.16 -14.93
-147.76 61.47 -14.26
-148.20 61.31 -14.29
-148.21 62.11 -13.91
-147.94 62.84 -13.95
-148.37 62.69 -13.99
-147.81 63.39 -13.99
-147.65 64.25 -6.36
-147.65 64.99 -5.88
-147.64 66.30 -4.63
-148.26 66.58 -8.65
-148.34 68.11 -9.43
-148.46 68.55 -1.52
-147.72 70.76 -3.41
-147.75 72.82 -5.92
-148.21 72.91 -6.34
-148.42 73.87 -7.06
-147.56 74.81 -6.92
-148.48 75.19 -7.54
-148.01 75.73 -6.46
-148.48 75.97 -7.14
-148.34 76.38 -6.97
-147.59 78.88 5.41
-147.60 79.75 5.68
-148.21 82.26 0.23
-148.21 82.95 0.79
-148.15 84.55 3.28
-147.54 86.50 11.75
-147.55 87.34 12.06
-148.13 88.04 6.01
-147.91 91.89 13.60
-148.38 92.19 13.35
-148.08 92.44 13.52
-148.35 93.41 14.81
-147.62 93.92 14.80
-147.92 94.89 15.47
-148.39 95.27 15.09
-148.11 96.39 22.41
-148.25 96.69 22.79
-147.89 99.44 33.08
-160.03 -91.46 10.65
-160.22 -91.42 9.74
-160.07 -91.37 8.84
-160.08 -89.95 7.29
-160.25 -89.60 6.91
-160.08 -89.25 6.52
-159.76 -89.04 5.58
-160.26 -88.99 5.97
-160.10 -88.74 5.42
-160.29 -88.80 4.36
-160.14 -88.87 3.29
-159.82 -88.60 2.45
-160.32 -88.66 2.68
-160.31 -87.75 2.24
-160.20 -86.90 -1.14
-159.85 -85.31 -1.74
-159.69 -85.04 -2.25
-160.20 -85.36 -2.45
-159.85 -84.52 -2.35
-160.36 -84.87 -2.60
-160.20 -84.64 -3.17
-159.70 -84.41 -3.11
-159.87 -84.19 -3.70
-160.21 -83.18 -4.60
-160.17 -80.00 -5.20
-159.86 -80.06 -6.52
-160.34 -79.69 -5.64
-160.18 -79.39 -6.09
-160.33 -77.90 -6.56
-159.67 -77.66 -7.41
-160.16 -77.53 -6.90
-159.85 -77.70 -18.66
-159.85 -77.36 -7.87
-159.58 -76.03 -19.97
-160.07 -75.84 -19.98
-160.17 -72.86 -10.75
-159.82 -71.26 -11.36
-159.98 -70.85 -19.67
-160.35 -71.35 -20.99
-159.56 -71.27 -23.94
-160.08 -70.67 -24.31
-160.45 -70.29 -18.56
-159.93 -69.92 -24.35
-160.11 -69.17 -24.40
-159.86 -66.71 -17.15
-160.00 -67.27 -25.62
-159.69 -66.30 -26.13
-159.54 -65.47 -26.25
-160.08 -64.32 -27.20
-159.78 -63.26 -27.80
-160.29 -62.83 -28.00
-160.20 -61.79 -21.18
-159.81 -61.80 -26.66
-160.30 -61.90 -26.51
-160.47 -61.61 -26.96
-159.85 -60.94 -21.13
-159.97 -61.40 -26.95
-159.81 -61.02 -27.27
-160.31 -61.33 -27.42
-159.97 -60.58 -27.50
-160.47 -60.84 -27.59
-159.81 -60.25 -27.89
-160.31 -60.48 -27.94
-159.97 -59.78 -28.10
-159.95 -57.08 -29.45
-159.78 -56.63 -29.68
-160.28 -56.76 -29.59
-159.78 -57.05 -30.63
-159.95 -56.23 -29.97
-159.77 -54.68 -30.38
-160.27 -55.03 -30.58
-159.93 -54.20 -30.58
-159.77 -53.89 -30.99
-159.93 -53.57 -31.40
-160.25 -53.02 -31.21
-159.91 -52.21 -31.24
-160.23 -50.95 -31.78
-159.94 -50.59 -33.09
-160.39 -50.47 -31.97
-159.73 -49.96 -32.39
-159.90 -49.64 -32.80
-160.39 -49.62 -32.49
-159.63 -49.82 -32.95
-160.12 -49.83 -33.18
-159.96 -49.30 -33.03
-160.34 -44.51 -34.03
-159.77 -44.44 -30.89
-160.16 -43.82 -33.96
-159.82 -43.08 -34.09
-160.32 -43.33 -34.14
-159.64 -42.61 -34.30
-160.16 -43.06 -34.62
-160.31 -42.24 -34.37
-160.10 -38.57 -35.38
-159.86 -38.12 -34.10
-160.07 -35.55 -36.42
-160.37 -31.55 -37.90
-160.38 -30.55 -37.59
-159.50 -30.26 -29.12
-159.51 -29.61 -29.94
-159.91 -30.40 -37.52
-159.60 -30.08 -37.40
-160.07 -30.00 -37.25
-160.08 -28.94 -37.01
-160.10 -27.91 -36.75
-159.87 -27.45 -32.72
-159.62 -26.79 -37.88
-160.12 -26.74 -37.56
-159.96 -27.09 -36.94
-160.44 -26.94 -37.34
-159.66 -26.57 -37.05
-160.12 -26.61 -36.77
-160.00 -25.99 -31.72
-159.51 -26.04 -36.93
-159.98 -25.89 -36.86
-160.45 -26.06 -36.90
-159.79 -24.80 -31.04
-159.68 -25.20 -37.16
-160.15 -25.10 -37.03
-159.54 -24.58 -37.13
-160.47 -24.82 -36.88
-160.49 -23.51 -36.92
-159.87 -23.40 -35.85
-159.53 -22.89 -36.30
-159.55 -23.48 -36.95
-160.03 -23.27 -36.95
-159.72 -22.95 -36.84
-160.19 -22.75 -36.82
-159.51 -21.80 -36.59
-160.04 -22.15 -36.79
-160.21 -21.55 -36.76
-159.84 -21.24 -36.44
-159.50 -20.81 -37.00
-160.01 -20.84 -36.76
-159.75 -21.43 -37.13
-159.60 -20.91 -37.01
-159.84 -20.33 -36.96
-160.35 -20.17 -37.03
-160.00 -19.67 -36.96
-159.78 -20.01 -37.31
-159.98 -18.54 -37.19
-159.65 -19.11 -37.62
-160.11 -19.18 -37.30
-159.81 -18.63 -37.45
-160.28 -17.62 -36.95
-160.46 -16.69 -36.83
-159.78 -16.55 -37.21
-160.14 -16.95 -37.01
-159.94 -15.75 -37.05
-159.85 -16.17 -37.42
-160.31 -16.27 -37.07
-159.71 -15.52 -37.45
-160.16 -15.66 -37.06
-160.45 -15.47 -36.98
-159.77 -15.41 -37.45
-160.27 -15.03 -37.25
-159.93 -14.71 -37.41
-160.25 -13.75 -37.33
-159.72 -12.59 -37.29
-160.24 -12.54 -37.49
-159.91 -13.29 -37.88
-160.37 -13.30 -37.63
-159.89 -12.13 -37.54
-159.71 -11.68 -37.81
-160.38 -10.53 -37.51
-160.21 -10.13 -37.84
-159.82 -7.93 -37.38
-160.33 -7.73 -37.41
-159.64 -7.43 -37.59
-160.16 -7.31 -37.72
-159.81 -6.95 -37.83
-160.34 -7.15 -38.33
-159.58 -7.42 -38.75
-159.63 -6.48 -38.08
-160.16 -6.50 -38.36
-159.81 -6.06 -38.39
-160.32 -5.84 -38.40
-159.64 -5.83 -38.92
-160.16 -5.74 -39.08
-160.35 -5.64 -39.76
-159.60 -6.26 -38.68
-160.08 -5.97 -39.26
-159.81 -5.41 -39.23
-159.61 -2.67 -40.03
-159.53 -1.84 -38.92
-159.99 -1.95 -39.02
-159.57 -0.91 -39.58
-160.14 2.14 -42.41
-160.07 3.32 -38.20
-160.08 4.31 -37.97
-159.63 4.57 -38.04
-159.53 5.92 -42.89
-160.06 5.80 -43.29
-159.71 6.05 -43.53
-160.24 6.05 -43.79
-159.55 6.18 -44.17
-160.23 5.55 -43.65
-160.13 7.50 -37.55
-159.69 7.85 -37.74
-160.18 9.14 -43.47
-160.21 11.37 -38.00
-160.13 12.23 -43.18
-160.49 12.14 -43.81
-159.94 12.99 -43.12
-159.94 13.93 -37.34
-160.25 15.10 -36.89
-159.82 16.39 -36.82
-160.28 16.44 -37.11
-159.86 19.44 -36.33
-160.02 19.88 -36.16
-159.84 22.57 -36.53
-159.95 22.54 -37.37
-160.44 24.23 -38.32
-160.44 24.84 -37.66
-159.98 27.48 -35.04
-160.43 27.42 -35.21
-159.72 28.49 -35.87
-159.56 29.16 -34.57
-159.74 30.24 -35.25
-160.48 31.46 -34.65
-160.21 32.41 -34.93
-159.63 33.37 -34.25
-160.09 35.34 -33.70
-160.09 36.07 -33.20
-159.81 37.99 -32.35
-160.28 38.78 -33.16
-160.21 41.41 -27.83
-160.24 43.48 -27.68
-160.12 44.36 -28.16
-160.11 46.33 -26.37
-159.66 47.47 -25.19
-159.64 48.49 -23.59
-159.79 49.46 -22.67
-159.80 50.46 -22.57
-159.65 50.68 -22.11
-160.10 50.97 -22.28
-159.80 51.22 -22.12
-160.25 51.42 -22.16
-160.25 52.19 -21.73
-159.68 52.77 -22.05
-160.13 53.11 -22.29
-159.71 58.27 -19.22
-159.85 59.29 -18.39
-159.71 60.34 -17.60
-159.97 61.69 -27.41
-159.76 64.18 -17.07
-160.34 65.33 -16.17
-159.77 66.42 -15.71
-159.91 67.47 -14.93
-159.75 68.30 -13.81
-159.76 69.16 -13.54
-159.91 70.36 -12.98
-159.76 70.53 -12.44
-160.20 70.83 -12.64
-159.92 71.25 -12.76
-160.36 71.29 -12.55
-160.36 72.06 -12.14
-159.80 73.35 -12.01
-159.95 74.49 -11.38
-160.37 75.20 -10.60
-159.96 76.16 -10.78
-160.16 77.26 -6.47
-159.72 78.44 -5.32
-159.71 79.11 -4.74
-160.31 80.47 -4.19
-160.28 82.89 -1.41
-160.45 84.37 -7.33
-160.21 85.33 3.10
-159.80 85.72 2.12
-159.67 86.41 1.81
-160.25 86.82 2.26
-160.15 87.91 1.24
-159.72 88.62 1.45
-159.89 89.34 1.08
-159.91 90.40 0.97
-160.35 91.32 1.41
-160.21 92.49 1.97
-160.33 93.21 3.35
-160.19 94.31 4.05
-159.89 95.26 4.73
-160.33 95.45 4.69
-159.88 96.43 6.21
-159.72 97.40 7.15
-159.86 98.37 8.11
-160.14 99.39 9.27
-171.84 -99.62 25.44
-172.35 -99.91 25.27
-171.70 -100.18 17.30
-172.21 -100.31 17.42
-172.38 -99.79 17.30
-172.21 -99.76 16.35
-172.23 -99.66 12.53
-171.87 -99.34 17.76
-171.70 -99.15 17.08
-171.87 -99.02 16.30
-172.38 -99.44 15.89
-171.72 -99.22 12.94
-171.89 -98.90 12.51
-172.39 -98.98 12.70
-171.72 -98.65 11.94
-172.22 -98.67 12.22
-171.73 -96.90 8.99
-172.23 -97.32 8.60
-171.88 -95.57 10.25
-172.39 -96.25 9.43
-172.22 -95.67 9.42
-171.72 -95.37 9.59
-171.89 -95.18 8.94
-172.39 -95.21 9.22
-171.72 -93.64 6.63
-172.23 -94.00 6.35
-172.40 -93.80 5.72
-172.23 -93.81 4.73
-171.89 -93.32 6.19
-171.73 -93.18 5.46
-171.89 -92.86 5.01
-172.40 -92.97 5.16
-172.23 -92.25 5.39
-172.40 -92.11 4.64
-171.73 -91.71 4.02
-172.23 -91.98 3.90
-171.90 -91.58 3.27
-171.73 -91.05 3.19
-171.89 -90.50 3.12
-172.40 -90.77 3.00
-172.23 -90.26 2.87
-171.90 -90.22 1.66
-172.40 -90.21 1.99
-171.73 -89.92 1.21
-172.23 -90.00 1.39
-172.40 -89.66 0.99
-171.90 -89.41 1.08
-171.73 -89.24 0.40
-172.23 -89.31 0.60
-171.90 -88.98 -0.12
-172.40 -89.06 0.07
-171.73 -88.62 -0.48
-172.24 -88.95 -0.71
-171.75 -86.68 -6.77
-172.25 -86.92 -6.84
-171.92 -86.51 -7.42
-172.42 -86.65 -7.34
-172.25 -86.38 -7.84
-171.92 -85.79 -8.13
-172.42 -86.05 -8.25
-172.25 -85.86 -8.86
-171.76 -85.49 -8.59
-171.92 -85.17 -9.01
-172.42 -85.32 -8.94
-171.75 -84.60 -9.04
-172.25 -84.80 -9.05
-172.43 -85.00 -10.85
-171.92 -83.78 -8.68
-172.41 -84.10 -8.87
-171.75 -83.62 -9.34
-172.42 -83.47 -9.73
-171.75 -82.71 -9.76
-172.41 -81.92 -9.15
-172.24 -80.29 -9.38
-171.90 -79.61 -9.54
-172.40 -79.96 -9.78
-171.74 -79.16 -9.77
-172.24 -79.39 -9.81
-171.90 -78.71 -9.99
-172.40 -78.97 -10.08
-172.24 -78.52 -10.30
-171.74 -78.36 -10.36
-171.90 -77.86 -10.51
-172.40 -78.19 -10.71
-171.74 -77.57 -10.98
-172.24 -77.94 -11.23
-171.90 -77.06 -11.10
-172.40 -77.33 -11.22
-171.73 -76.69 -11.45
-172.23 -76.80 -11.32
-171.90 -76.25 -11.69
-172.40 -76.47 -11.72
-171.73 -75.96 -12.16
-172.23 -76.07 -12.03
-171.90 -75.69 -12.65
-172.40 -75.80 -12.51
-171.73 -75.19 -12.80
-172.23 -75.45 -12.89
-171.90 -74.63 -12.85
-172.40 -74.96 -13.04
-172.23 -74.70 -13.55
-171.73 -74.35 -13.32
-171.90 -73.85 -13.48
-172.40 -74.11 -13.58
-172.23 -73.61 -13.72
-171.73 -73.42 -13.74
-171.90 -73.00 -14.00
-172.40 -73.20 -14.00
-171.73 -72.57 -14.25
-172.23 -72.75 -14.23
-171.90 -72.16 -14.54
-172.40 -72.36 -14.54
-171.73 -71.73 -14.79
-172.23 -71.93 -14.80
-172.40 -71.53 -15.09
-171.90 -71.33 -15.09
-171.73 -70.98 -15.47
-172.23 -71.09 -15.33
-171.90 -70.69 -15.93
-172.40 -70.73 -15.69
-171.73 -70.02 -15.83
-172.23 -70.25 -15.87
-172.39 -69.80 -16.10
-171.89 -68.51 -16.28
-172.39 -68.83 -16.44
-171.72 -68.17 -16.66
-172.23 -68.48 -16.83
-171.89 -67.65 -16.78
-172.39 -68.00 -17.00
-172.22 -67.65 -17.37
-171.72 -67.37 -17.25
-171.89 -66.99 -17.59
-172.39 -67.21 -17.61
-171.72 -66.60 -17.91
-172.22 -66.84 -17.96
-172.39 -66.42 -18.23
-171.72 -65.69 -18.35
-172.22 -65.91 -18.37
-171.89 -65.10 -18.37
-172.39 -65.43 -18.55
-171.72 -64.82 -18.84
-172.22 -65.13 -18.99
-172.39 -64.52 -19.00
-172.22 -63.94 -19.04
-172.39 -63.52 -19.32
-171.88 -63.31 -19.30
-171.72 -62.84 -19.50
-172.22 -63.05 -19.51
-172.38 -62.64 -19.80
-171.88 -62.40 -19.74
-171.71 -61.95 -19.98
-172.22 -62.13 -19.95
-171.88 -61.53 -20.26
-172.38 -61.74 -20.26
-172.21 -61.25 -20.43
-171.88 -60.65 -20.74
-172.38 -60.85 -20.73
-171.71 -60.11 -20.85
-172.21 -60.36 -20.91
-171.88 -59.51 -20.86
-172.38 -59.88 -21.10
-172.21 -59.46 -21.37
-171.88 -58.82 -21.63
-172.38 -58.98 -21.56
-172.21 -58.57 -21.85
-171.87 -57.66 -21.73
-172.38 -57.99 -21.90
-172.21 -57.63 -22.26
-171.71 -57.33 -22.13
-171.87 -56.80 -22.25
-172.38 -57.04 -22.30
-172.21 -56.52 -22.44
-171.70 -56.38 -22.52
-171.87 -55.93 -22.76
-172.37 -56.14 -22.77
-171.70 -55.53 -23.07
-172.21 -55.76 -23.10
-171.87 -55.02 -23.21
-172.37 -55.25 -23.25
-171.70 -54.58 -23.46
-172.20 -54.71 -23.36
-172.37 -54.33 -23.70
-171.70 -53.73 -24.01
-172.20 -53.91 -23.97
-172.37 -53.51 -24.27
-171.87 -53.30 -24.26
-171.70 -52.90 -24.58
-172.20 -53.07 -24.52
-172.37 -52.63 -24.77
-171.87 -52.44 -24.80
-171.70 -51.97 -25.01
-172.20 -52.15 -24.98
-171.87 -51.55 -25.29
-172.37 -51.75 -25.28
-172.20 -51.31 -25.52
-171.86 -50.71 -25.84
-172.37 -50.87 -25.77
-172.20 -50.43 -26.03
-171.86 -49.82 -26.33
-172.37 -49.97 -26.25
-172.20 -49.56 -26.54
-171.69 -49.33 -26.52
-171.86 -48.80 -26.64
-172.37 -49.05 -26.69
-172.20 -48.70 -27.08
-171.69 -48.48 -27.05
-171.86 -48.09 -27.37
-172.37 -48.20 -27.24
-171.69 -47.55 -27.49
-172.20 -47.74 -27.47
-172.36 -47.22 -27.62
-171.69 -46.56 -27.85
-172.19 -46.71 -27.77
-171.86 -45.96 -27.89
-172.36 -46.22 -27.97
-171.69 -45.55 -28.19
-172.19 -45.90 -28.38
-172.36 -45.16 -28.23
